# .PCD v0.7 - Point Cloud Data file format
VERSION 0.7
FIELDS x y z rgb
SIZE 4 4 4 4
TYPE F F F F
COUNT 1 1 1 1
WIDTH 1051
HEIGHT 1
VIEWPOINT 0 0 0 1 0 0 0
POINTS 1051
DATA ascii
0.36127532 1.0309709 1.3893514 1.8438797e-38
0.35956526 1.0578364 1.3815954 1.8347319e-38
0.36226997 1.0490175 1.3911593 1.834732e-38
0.3597514 1.060123 1.3844323 1.8439155e-38
0.3618435 1.0702621 1.3896867 1.834696e-38
0.36273193 1.0897844 1.3908076 1.8254404e-38
0.36371344 1.1099633 1.3901501 1.8069654e-38
0.36338854 1.1301786 1.390186 1.7885261e-38
0.36350608 1.1495379 1.389497 1.770087e-38
0.36400357 1.1696463 1.3901606 1.7608676e-38
0.36460558 1.1900774 1.3904632 1.7424645e-38
0.35793155 1.2097276 1.3912667 1.9911389e-38
0.36386189 1.2111691 1.3906466 1.7701229e-38
0.35863987 1.2298406 1.3869544 1.9911746e-38
0.36340201 1.2298785 1.3918103 1.8069648e-38
0.35798925 1.2488734 1.3888384 1.991139e-38
0.36366299 1.2498825 1.3911995 1.7793424e-38
0.35977584 1.2619306 1.389267 1.9819196e-38
0.36326745 1.2704444 1.3897307 1.8346234e-38
0.35961816 1.2910446 1.3810622 1.7426081e-38
0.36503381 1.2901037 1.3911893 1.8898685e-38
0.35945177 1.3177176 1.3873185 1.7610115e-38
0.36427036 1.3096277 1.3900772 1.8806851e-38
0.35903156 1.3312165 1.3874276 1.7610115e-38
0.36929861 1.3300412 1.3908013 1.9727721e-38
0.35896972 1.3496802 1.3890711 1.7610474e-38
0.3704741 1.3491471 1.390638 2.0096142e-38
0.35688916 1.3708333 1.3901007 1.751864e-38
0.37371409 1.3701037 1.391084 2.0372727e-38
0.35544136 1.3903922 1.3897952 1.7426803e-38
0.37526321 1.3908899 1.3909609 2.0464566e-38
0.35339284 1.410439 1.3903619 1.7334607e-38
0.37432471 1.4100835 1.3900517 2.055676e-38
0.35137099 1.4299321 1.3905532 1.7241691e-38
0.37627444 1.4296311 1.3894197 2.0464564e-38
0.34892011 1.4498763 1.3890206 1.7056941e-38
0.37686622 1.4498862 1.3903899 2.0464563e-38
0.34617904 1.4701179 1.3899695 1.6965104e-38
0.37838867 1.4686242 1.389739 2.0372366e-38
0.38142169 1.4787115 1.3935961 2.0187977e-38
0.34399047 1.4913859 1.3905679 1.6872907e-38
0.37949836 1.4863191 1.3827568 2.0278731e-38
0.38129032 1.4913596 1.3917 2.0187256e-38
0.34455428 1.509197 1.3890636 1.6872546e-38
0.37977234 1.5047442 1.3920267 2.0187254e-38
0.38135901 1.5106454 1.3892467 2.00947e-38
0.33885333 1.5297585 1.3852192 1.678071e-38
0.34199771 1.5303296 1.3899997 1.6688515e-38
0.38276741 1.5301149 1.3904513 2.009434e-38
0.33908546 1.5422451 1.3807682 1.6596318e-38
0.34203899 1.5430728 1.3855381 1.6780709e-38
0.38252851 1.5503345 1.3903232 2.0002503e-38
0.38295773 1.5693867 1.3908384 1.9910307e-38
0.38262936 1.5900117 1.3896117 1.9818472e-38
0.38264513 1.6096236 1.3896167 1.9909948e-38
0.38303274 1.6298653 1.390002 1.9818113e-38
0.38354537 1.6501501 1.390274 1.9818473e-38
0.3841626 1.6701621 1.389551 1.9726996e-38
0.38455734 1.6906546 1.3906858 1.9726996e-38
0.38414812 1.709888 1.3892096 1.9727355e-38
0.38400269 1.7301674 1.3895231 1.9727355e-38
0.3829872 1.7501972 1.389676 1.9727355e-38
0.38357484 1.770243 1.3894953 1.9727355e-38
0.38327584 1.7900323 1.3905921 1.9727355e-38
0.38291276 1.8100423 1.39004 1.9635161e-38
0.38238201 1.8297194 1.3900684 1.963552e-38
0.37985909 1.8479103 1.3810418 1.9911746e-38
0.3820892 1.8499653 1.3907667 2.0003942e-38
0.38856861 1.8700298 1.3898486 1.9727355e-38
0.39197725 1.889588 1.3901629 1.6592704e-38
0.37732738 1.9051769 1.3822684 1.6317547e-38
0.38860959 1.9031556 1.3913286 1.8714279e-38
0.39304399 2.7896118 1.3912549 9.4151324e-39
0.31498137 -1.3113022e-06 1.4136715 1.788989e-38
0.33544582 -0.013429701 1.4164993 1.9272526e-38
0.34453064 -0.0022244453 1.4088827 1.4483021e-38
0.31548476 0.0027539968 1.4159868 1.6230364e-38
0.33581698 0.0080020111 1.4106735 1.7796618e-38
0.34428489 0.0057145259 1.4111447 1.3002821e-38
-0.025066266 0.52490467 1.4113437 9.4082478e-39
-0.0060235858 0.52854997 1.4118369 9.4071674e-39
0.010571837 0.52942348 1.4098921 9.2231363e-39
0.025013179 0.53028196 1.4104741 9.0394625e-39
0.33232021 0.53853214 1.4157798 1.9362908e-38
0.33563116 0.5436703 1.4177302 1.9454746e-38
0.33620879 0.64871633 1.4194847 1.9270714e-38
0.32539758 0.75105214 1.4136305 1.9085246e-38
0.32994586 0.7691825 1.4176141 1.8900857e-38
0.24817213 0.87997746 1.4192655 2.1208582e-39
0.29371181 0.87969244 1.4112657 1.3832848e-39
0.23480697 0.88267058 1.4178481 2.3056082e-39
0.24498154 0.88187581 1.418851 2.3056082e-39
0.29436764 0.88270879 1.4096663 1.4754888e-39
0.35562357 0.91368324 1.4157777 1.6504482e-38
0.36382547 0.91593158 1.4099255 1.7333168e-38
0.36849782 0.93019027 1.4096575 1.7240252e-38
0.35947827 0.95730811 1.4036722 1.7883833e-38
0.36529323 0.94948643 1.4098397 1.6961876e-38
0.35869202 0.97233123 1.4021558 1.8162574e-38
0.36195889 0.96834928 1.4118116 1.8070378e-38
0.35945749 0.98189098 1.4028524 1.816329e-38
0.36215225 0.99041021 1.4095023 1.8255127e-38
0.36308303 1.0097134 1.4098867 1.8346961e-38
0.36338437 1.0298125 1.4100308 1.8255126e-38
0.36401728 1.0503811 1.4106611 1.8346961e-38
0.36562458 1.0695412 1.4111481 1.8255123e-38
0.36586002 1.0901551 1.410089 1.8254045e-38
0.36608464 1.1093556 1.4099472 1.8069654e-38
0.36439747 1.1303979 1.4091634 1.7884903e-38
0.3655138 1.1497583 1.4102396 1.7700871e-38
0.36582485 1.1698529 1.4103384 1.751684e-38
0.36515781 1.1899304 1.4095181 1.751648e-38
0.35445884 1.2135768 1.41081 1.9911393e-38
0.36573929 1.2100221 1.4109448 1.7517199e-38
0.35585049 1.2276673 1.4095759 2.0003589e-38
0.36421305 1.2303395 1.4084111 1.7977814e-38
0.35727248 1.2497693 1.4105183 2.0003949e-38
0.36348599 1.2498859 1.4085786 1.8069651e-38
0.35893905 1.2654595 1.4098637 2.0095786e-38
0.36369565 1.2701155 1.4096614 1.8714298e-38
0.36464179 1.2900774 1.409713 1.8899046e-38
0.35981229 1.3059719 1.4102204 1.7702669e-38
0.36380094 1.310061 1.4094846 1.8622822e-38
0.35948166 1.3310827 1.4154181 1.7702312e-38
0.36588463 1.3296803 1.4097046 1.8991245e-38
0.3579376 1.3506123 1.4102529 1.7794508e-38
0.3711285 1.3500518 1.4093434 2.0188342e-38
0.35775521 1.3700356 1.4109997 1.7702671e-38
0.37395504 1.3698347 1.4095756 2.0280896e-38
0.35684925 1.3897179 1.4095929 1.7519e-38
0.37610233 1.3901883 1.4102793 2.0373092e-38
0.35466781 1.4102478 1.4099997 1.751864e-38
0.37577987 1.409523 1.4101466 2.037345e-38
0.35273331 1.4297823 1.4092728 1.7426443e-38
0.37782109 1.4299245 1.408157 2.0465286e-38
0.38013992 1.4332547 1.418344 2.0373093e-38
0.35171768 1.4493686 1.4104522 1.7241691e-38
0.3780959 1.4487301 1.4083018 2.0464567e-38
0.38070765 1.4538658 1.4183115 2.0280895e-38
0.34614149 1.4706458 1.4091793 1.7056941e-38
0.37952247 1.4678863 1.4068989 2.0372729e-38
0.38128582 1.4715674 1.4121939 2.0280893e-38
0.34543312 1.4901025 1.4102311 1.6965103e-38
0.38282242 1.4903319 1.4096084 2.0187979e-38
0.3458181 1.5110922 1.4102837 1.6872907e-38
0.38385516 1.5099899 1.410382 1.9911392e-38
0.34541357 1.5257847 1.4077399 1.6780712e-38
0.3840037 1.5299245 1.4099138 1.991103e-38
0.38419604 1.5499644 1.4100779 1.9818835e-38
0.38354439 1.57011 1.4100512 1.9634804e-38
0.38535962 1.5900376 1.4101886 1.9634804e-38
0.3850432 1.6104904 1.4100242 1.9726639e-38
0.38391009 1.6298149 1.4099079 1.9634805e-38
0.38431337 1.6495466 1.4091769 1.9634805e-38
0.38540822 1.6701618 1.4089831 1.9634804e-38
0.38576093 1.6899812 1.4097353 1.9726999e-38
0.38609165 1.7103093 1.4090464 1.9726999e-38
0.38594359 1.7303351 1.4098222 1.9635165e-38
0.38497689 1.7500658 1.4095943 1.9635164e-38
0.38544783 1.7700448 1.4100202 1.9635522e-38
0.3854726 1.7900355 1.4107388 1.9635164e-38
0.38432187 1.809919 1.410171 1.9635164e-38
0.38387817 1.8297966 1.4100977 1.9635522e-38
0.38374236 1.8499024 1.4100556 1.9820272e-38
0.391065 1.869673 1.4098637 1.963588e-38
0.39426965 1.8900551 1.4100367 1.6501228e-38
0.37640247 1.9054565 1.4083891 1.3737152e-38
0.38917011 1.9028842 1.4088547 1.853025e-38
0.16798215 1.9443922 1.4173903 6.4716167e-40
0.1895141 1.9416525 1.4190748 6.4716027e-40
0.25811794 1.9409628 1.4050838 1.5662355e-39
0.27393782 1.9436083 1.4163094 1.4744014e-39
0.28883967 1.9436258 1.4152129 1.3825645e-39
0.3016459 1.9441528 1.4181318 1.3825673e-39
0.37725011 2.2533598 1.4194968 1.5859811e-38
0.38063848 2.3970656 1.4196372 1.521804e-38
0.37761238 2.408639 1.4184383 1.5587184e-38
0.38025063 2.4027689 1.4192358 1.5310237e-38
0.38172311 2.6179159 1.4193485 1.3383509e-38
0.37808651 2.6312413 1.4162946 1.3383509e-38
0.37092435 2.7891245 1.4110595 1.3937394e-38
0.39449185 2.7888558 1.4103848 9.23146e-39
0.40107736 2.7919297 1.4152714 6.4645962e-40
0.19648646 -0.021344224 1.4324034 9.2231279e-39
0.19372027 -0.018882453 1.4294403 8.4859244e-39
0.3382 -0.010036741 1.4359701 1.8354528e-38
0.34377488 -0.0045638168 1.4314432 1.678864e-38
0.31794256 0.0098889954 1.4227979 1.2542178e-38
0.32800174 0.011684368 1.431103 1.5308049e-38
0.34622329 0.007254546 1.4290893 1.2265256e-38
0.095683761 0.031762276 1.4326031 1.4779845e-39
0.11037933 0.031910419 1.4326214 2.2159083e-39
0.1247346 0.032237381 1.4314088 2.030438e-39
0.16737962 0.039056361 1.4385643 1.4786992e-39
0.19540101 0.03840065 1.434389 1.9368117e-39
0.20037764 0.03770113 1.4372627 1.8453321e-39
0.22990395 0.037941858 1.4330997 3.5992001e-39
0.24676314 0.039284348 1.4357569 3.0470997e-39
0.31926474 0.023381233 1.4244382 1.7520381e-38
0.33009636 0.030158259 1.4344888 1.58605e-38
0.10643101 0.040889382 1.4364734 1.6602234e-39
0.23247138 0.04183042 1.4339498 1.7545728e-39
0.2543869 0.043707777 1.4379001 1.3868651e-39
0.26953903 0.045080394 1.4365174 1.3875826e-39
0.30876073 0.045557499 1.4264263 6.2736006e-39
0.33156225 0.047341928 1.4358572 1.79828e-38
0.33567822 0.073372513 1.4357549 7.0997712e-39
0.085553288 0.081405304 1.4381648 1.3277561e-38
0.33787572 0.090826325 1.4350382 1.7797694e-38
0.34125018 0.092620969 1.439634 1.788953e-38
0.33447334 0.10965041 1.4300921 1.7337436e-38
0.34116971 0.11737277 1.4374255 1.7429273e-38
0.13853872 0.13047378 1.4394866 1.4477187e-38
0.33252779 0.12967725 1.42667 1.7152329e-38
0.34174436 0.1273962 1.4371446 1.7336719e-38
0.33420876 0.14801332 1.4272426 1.7059416e-38
0.34180766 0.1514788 1.4369782 1.7060133e-38
0.33715251 0.17108946 1.429103 1.6507325e-38
0.34393141 0.16931757 1.4374224 1.6691354e-38
0.33730501 0.18947175 1.429451 1.5954512e-38
0.34456906 0.1902397 1.4388338 1.5954512e-38
0.3391878 0.20304799 1.4313778 1.531058e-38
0.34275395 0.21028933 1.4338638 1.5309864e-38
0.34402984 0.22975856 1.4346768 1.678322e-38
0.34632948 0.25060716 1.4367343 1.7519357e-38
0.34811267 0.26990187 1.4371639 1.7519e-38
0.34714267 0.28872854 1.4364278 1.7334613e-38
0.34841409 0.30899194 1.4362022 1.7426448e-38
0.012831097 0.32956025 1.4222765 8.761805e-39
0.021274924 0.32845151 1.4231224 8.7614449e-39
0.042581249 0.33499512 1.4344767 8.761805e-39
0.33762947 0.33256215 1.4251894 1.7519005e-38
0.3447738 0.33051914 1.4336181 1.742717e-38
0.047255963 0.34084219 1.4314249 8.8536433e-39
0.070343368 0.3492358 1.4340619 8.5781312e-39
0.090187013 0.35638112 1.4360075 8.5781284e-39
0.10575539 0.35964459 1.4394599 8.7618022e-39
0.33639649 0.34974211 1.4227856 1.7611201e-38
0.34480652 0.34997031 1.4328674 1.7611201e-38
0.12295979 0.36201632 1.439914 8.7617994e-39
0.3391926 0.36091 1.4262719 1.7795951e-38
0.34640932 0.37050405 1.4329293 1.7703757e-38
0.34784347 0.38947707 1.4338809 1.733462e-38
0.34877965 0.40976426 1.4349831 1.751937e-38
0.34883106 0.42950869 1.43548 1.7888508e-38
0.34972051 0.44971451 1.4361042 1.8626068e-38
0.34840709 0.47008854 1.4337349 1.8902292e-38
0.34959447 0.48927334 1.434339 1.8994847e-38
0.34974226 0.50898069 1.4346247 1.9270715e-38
0.042456061 0.52877915 1.4361628 9.4068087e-39
0.3502481 0.5297035 1.4352918 1.9455105e-38
0.10943786 0.54422444 1.4291534 9.5915573e-39
0.16616619 0.54997933 1.4398527 1.1803166e-38
0.33771479 0.5466575 1.4215035 1.9455105e-38
0.34512997 0.55077386 1.4293269 1.936327e-38
0.33996117 0.56826913 1.423579 1.9455105e-38
0.344935 0.5697583 1.4283758 1.9455105e-38
0.34787774 0.59005302 1.4312106 1.936327e-38
0.34695315 0.61017489 1.4313884 1.936327e-38
0.34644127 0.63031209 1.4318597 1.9362551e-38
0.33931172 0.65117288 1.4217845 1.9270714e-38
0.34742829 0.65052485 1.4329072 1.9362551e-38
0.34620017 0.67037767 1.431577 1.9270715e-38
0.34656245 0.68953627 1.4328995 1.9270358e-38
0.3391813 0.70978993 1.4241146 1.9269638e-38
0.34575531 0.70981961 1.4346651 1.9269999e-38
0.33679682 0.73434156 1.4289523 1.9085607e-38
0.34268638 0.72954571 1.4342164 1.9177804e-38
0.33669248 0.74827951 1.4260883 1.9177444e-38
0.3423425 0.74961382 1.4341424 1.9085249e-38
0.33742365 0.76979005 1.4251086 1.8993052e-38
0.34295669 0.7695663 1.4343526 1.8901218e-38
0.33853593 0.78942072 1.4245585 1.880866e-38
0.34560579 0.78914148 1.4347314 1.8808662e-38
0.33941063 0.80319691 1.4257504 1.862427e-38
0.34700638 0.81073761 1.4345608 1.8716467e-38
0.34773406 0.82952797 1.4330748 1.8439881e-38
0.34688932 0.85131776 1.4306709 1.8347683e-38
0.031167462 0.8785311 1.4373498 1.9386152e-39
0.056817174 0.87976408 1.4353695 1.9382578e-39
0.065740414 0.87847281 1.431978 1.8460608e-39
0.09721899 0.87935019 1.431901 1.9386123e-39
0.108737 0.87900251 1.4305887 1.9382564e-39
0.16454287 0.87793422 1.4380054 2.030808e-39
0.19123776 0.87925082 1.4365759 2.2148419e-39
0.20917402 0.87901044 1.4299867 2.2144874e-39
0.22999881 0.87820011 1.430094 2.2134112e-39
0.25945559 0.87785262 1.424222 2.0283053e-39
0.27190149 0.87757874 1.4258432 2.2126951e-39
0.29362208 0.87933111 1.4280908 2.3974437e-39
0.30593514 0.87923604 1.428154 2.4896407e-39
0.34826878 0.86933625 1.4338199 1.4198512e-38
0.034814388 0.88080144 1.4356638 2.0311695e-39
0.050382484 0.88208199 1.4366602 2.0311681e-39
0.067162983 0.88324594 1.4307758 2.0308094e-39
0.087588243 0.88183957 1.4306198 2.1230036e-39
0.10902736 0.88161707 1.4312505 2.1230064e-39
0.13213211 0.88147432 1.4346662 1.9389725e-39
0.14292404 0.88168144 1.4328911 2.0311681e-39
0.16136074 0.88182199 1.4374385 1.8467755e-39
0.19136684 0.88149357 1.4367443 2.030808e-39
0.20946176 0.88121009 1.4302549 2.399236e-39
0.23278877 0.88210446 1.4213248 2.3056082e-39
0.2594232 0.88008416 1.4242914 2.4896393e-39
0.29496494 0.88130158 1.4295528 1.9364684e-39
0.30590367 0.88141406 1.4282217 2.3974493e-39
0.34836245 0.88941443 1.4317163 1.7610481e-38
0.35156846 0.9062528 1.4332424 1.6228973e-38
0.36728188 0.91596973 1.4313101 1.7333171e-38
0.37192962 0.92964685 1.4305018 1.7056584e-38
0.36774439 0.94991487 1.4300623 1.7054074e-38
0.35987511 0.9646219 1.425596 1.7794159e-38
0.36377481 0.97043204 1.4304808 1.8070384e-38
0.36423194 0.99000061 1.4298517 1.825513e-38
0.36350182 1.0101938 1.4291464 1.825477e-38
0.3652789 1.0298233 1.4301485 1.825477e-38
0.36525491 1.0504011 1.4302626 1.8254768e-38
0.36628947 1.0702596 1.4294399 1.8254407e-38
0.36688355 1.0899541 1.4295788 1.8161851e-38
0.36639053 1.1103504 1.4295895 1.8068935e-38
0.36754262 1.129685 1.4303974 1.7884904e-38
0.36716485 1.1499494 1.430398 1.7700873e-38
0.3667995 1.1701249 1.4304802 1.7700513e-38
0.36792982 1.1892017 1.4303321 1.7609036e-38
0.35031208 1.2154894 1.424077 1.9912115e-38
0.36685577 1.2106153 1.42988 1.770123e-38
0.35477442 1.2305152 1.4307692 1.9912115e-38
0.36691788 1.2295491 1.4300227 1.7701232e-38
0.3583484 1.2504933 1.4310939 2.0004309e-38
0.36436516 1.2503785 1.4300888 1.8530268e-38
0.35861084 1.2641966 1.4306159 2.0004309e-38
0.3641288 1.2713387 1.4301641 1.8530627e-38
0.35998043 1.2807097 1.4339144 2.0096506e-38
0.36449853 1.2898593 1.4302145 1.8807212e-38
0.36525908 1.3103156 1.430079 1.8806855e-38
0.35925195 1.337522 1.4283057 1.7702672e-38
0.36616185 1.329626 1.430993 1.8991603e-38
0.35878477 1.3514434 1.4296294 1.7794509e-38
0.36880574 1.3492396 1.4312494 1.9267831e-38
0.35814002 1.3696871 1.4292258 1.7794509e-38
0.37325093 1.3703141 1.4313875 1.9820641e-38
0.35756311 1.3898253 1.4295496 1.7610837e-38
0.37614578 1.3899503 1.4294307 2.0097226e-38
0.3537316 1.4112079 1.4287803 1.751864e-38
0.37802961 1.4098829 1.4297758 2.0281616e-38
0.38050693 1.4110607 1.4359033 2.0189422e-38
0.35507965 1.4294732 1.4292866 1.7518278e-38
0.37906247 1.4284769 1.4293636 2.0189422e-38
0.381275 1.4335217 1.4317001 2.0189782e-38
0.35159373 1.4488577 1.430859 1.7426441e-38
0.37931511 1.4460951 1.4253981 2.0280897e-38
0.38124272 1.4516784 1.4322208 2.0189062e-38
0.34867206 1.4688005 1.4308987 1.7241691e-38
0.37983617 1.4616787 1.4243767 2.037309e-38
0.38334635 1.4705466 1.4302843 2.018906e-38
0.34795132 1.4901745 1.4302037 1.6965103e-38
0.38440993 1.4900259 1.4296126 2.0188702e-38
0.34563905 1.5096836 1.4284369 1.6872907e-38
0.38501379 1.5106568 1.4306593 2.000395e-38
0.34828129 1.5206816 1.421798 1.6965102e-38
0.38578844 1.5300522 1.4303149 1.9819198e-38
0.38571027 1.5497779 1.4306006 1.9727002e-38
0.38590306 1.5702002 1.4302906 1.9634806e-38
0.38619143 1.5900784 1.4300858 1.9634805e-38
0.38626152 1.6100076 1.429445 1.9634804e-38
0.38586101 1.6303176 1.4303725 1.9634805e-38
0.38587326 1.6501621 1.4293284 1.9634805e-38
0.38734302 1.6700836 1.4292426 1.9634804e-38
0.38839343 1.6900345 1.429852 1.9635165e-38
0.38871083 1.7100009 1.4297554 1.9635165e-38
0.38839304 1.7296342 1.4303178 1.9635524e-38
0.38805136 1.7508918 1.4305038 1.9635522e-38
0.38639024 1.7699 1.4298692 1.9635524e-38
0.38691774 1.7900714 1.4296629 1.9543327e-38
0.38649532 1.8101994 1.4298688 1.9543685e-38
0.38590851 1.8295814 1.4306328 1.945185e-38
0.38639823 1.8495501 1.4302179 1.9636601e-38
0.39359853 1.870222 1.429636 1.9452207e-38
0.39612064 1.8897369 1.4297208 1.6962567e-38
0.37712601 1.9138142 1.4360949 1.1338259e-38
0.3918595 1.9038129 1.4312629 1.8162186e-38
0.37561375 1.9311025 1.4349009 1.7794838e-38
0.078642048 1.9471502 1.4384869 7.393559e-40
0.083759248 1.9463553 1.4365294 8.3155153e-40
0.11500051 1.9458818 1.431417 9.2338702e-40
0.12908068 1.9463886 1.4276327 7.393559e-40
0.15159354 1.9473234 1.4328934 7.3971603e-40
0.16715133 1.94669 1.4332029 7.393559e-40
0.18964882 1.9455217 1.421846 9.2302689e-40
0.21482429 1.9417657 1.4235158 7.3971323e-40
0.23258314 1.9425521 1.4245529 9.2374576e-40
0.24513845 1.9429827 1.4235612 1.1992536e-39
0.27001491 1.9440445 1.424461 1.2900129e-39
0.35054263 1.9460297 1.4381695 1.2910919e-39
0.37634867 1.9414316 1.4363533 3.0442494e-39
0.38630289 1.956843 1.4347712 1.2446766e-38
0.3856779 1.9712057 1.4331838 1.7887394e-38
0.38624221 1.9903677 1.4320992 1.5490666e-38
0.38659707 2.0099285 1.4336867 1.7611166e-38
0.37828884 2.0351243 1.4241006 1.613603e-38
0.38595098 2.0296369 1.4338758 1.7611167e-38
0.018425599 2.0569708 1.4373903 5.996655e-39
0.026089782 2.0568674 1.434867 5.9970123e-39
0.0477871 2.0585227 1.432832 6.1814008e-39
0.071987867 2.0581977 1.4359229 6.0892051e-39
0.37831911 2.049567 1.4238733 1.6595569e-38
0.38872945 2.0484042 1.4365517 1.7979232e-38
0.027495036 2.0614033 1.4349047 6.089208e-39
0.047796562 2.0611048 1.4327943 6.181042e-39
0.070355475 2.0607722 1.43493 6.1814008e-39
0.088993683 2.0604978 1.4350064 6.1814022e-39
0.11306103 2.0601428 1.4385105 6.4569101e-39
0.37688497 2.0689795 1.423193 1.7330979e-38
0.3882831 2.0689988 1.4352316 1.7978514e-38
0.38692471 2.0896504 1.433972 1.8255458e-38
0.38553596 2.1100514 1.4324709 1.8255815e-38
0.38415211 2.1299887 1.431052 1.8071781e-38
0.37838706 2.1544576 1.4248101 1.7609364e-38
0.38422084 2.1507354 1.4304186 1.770228e-38
0.38434619 2.1708016 1.4298536 1.7333137e-38
0.37872183 2.1904926 1.4244471 1.7794475e-38
0.38448304 2.1901116 1.4306098 1.7057631e-38
0.37872228 2.2130091 1.4232435 1.6872882e-38
0.38476422 2.2082541 1.4309802 1.6966158e-38
0.3782458 2.2281537 1.4222616 1.6596654e-38
0.38812619 2.2295573 1.4342401 1.7243824e-38
0.3781108 2.2521985 1.4247003 1.7243827e-38
0.38802189 2.2476254 1.4336112 1.7244187e-38
0.38888341 2.2687559 1.4336466 1.7244546e-38
0.38821706 2.290627 1.4329925 1.715271e-38
0.11656654 2.3195693 1.4362621 7.6565393e-39
0.13406435 2.3193393 1.4387579 7.6572609e-39
0.14754166 2.3175128 1.4389763 7.7490978e-39
0.39004436 2.3104477 1.4352164 1.6877202e-38
-0.02017957 2.337513 1.4368138 6.7345844e-39
-0.0075103119 2.337132 1.4327759 7.3806726e-39
0.0096374555 2.3328197 1.4324038 7.2888329e-39
0.027393013 2.330164 1.4326502 7.3813873e-39
0.071494527 2.3296902 1.4346074 7.4725053e-39
0.090367205 2.3276219 1.4327052 7.4725067e-39
0.10832649 2.3241446 1.4353091 7.5643436e-39
0.12464225 2.3208597 1.4370611 7.380674e-39
0.3882291 2.3314383 1.4323748 1.6600976e-38
-0.029549491 2.3426731 1.4371611 6.9200574e-39
-0.010497034 2.3409419 1.4355768 7.1962814e-39
0.38897088 2.3496585 1.4309604 1.6231834e-38
0.38638327 2.370316 1.4285959 1.6047803e-38
0.37906182 2.3947964 1.4211605 1.6048162e-38
0.38814837 2.3887522 1.4303321 1.5956326e-38
0.37847695 2.4027948 1.4205676 1.5956326e-38
0.39035332 2.4105685 1.4336518 1.5957049e-38
0.38848472 2.4314592 1.4317682 1.3104393e-38
0.39087227 2.4498129 1.4332902 1.2184237e-38
0.38955092 2.4716771 1.4318917 1.2184237e-38
0.39342535 2.4897366 1.434713 1.1999846e-38
0.3931866 2.5106976 1.4350871 1.1815817e-38
0.39245376 2.5311096 1.433611 1.1723617e-38
0.39152339 2.5505562 1.4321489 1.1539948e-38
0.39303598 2.5691886 1.4333496 1.135664e-38
0.39264786 2.5908751 1.4329253 1.1725064e-38
0.38998821 2.6102347 1.429749 1.2000933e-38
0.39259258 2.6297104 1.4331878 1.126409e-38
0.39325866 2.6499784 1.4343827 1.1172251e-38
0.3915166 2.6703725 1.4337786 1.1263725e-38
0.066789806 2.6981492 1.4397937 1.0153037e-38
0.10807925 2.6958764 1.4396633 1.0152676e-38
0.15691304 2.6981626 1.4396498 9.9682852e-39
0.1653769 2.6980019 1.4395489 1.0060481e-38
0.39102215 2.6893518 1.4332016 1.1171891e-38
0.066799223 2.7006884 1.4397569 1.0245232e-38
0.0974411 2.7097602 1.4396869 1.0153037e-38
0.11199407 2.7113492 1.4394593 1.0152676e-38
0.129311 2.7119753 1.4392045 1.0153037e-38
0.14913535 2.7104826 1.4397744 1.0152676e-38
0.16539378 2.7024539 1.4394838 9.9686453e-39
0.38956916 2.7099929 1.431932 1.1264087e-38
0.056811918 2.7317321 1.4393873 1.0429623e-38
0.067993052 2.7273941 1.439463 1.0245592e-38
0.091221094 2.7253211 1.43944 1.006192e-38
0.11021494 2.7293422 1.4389879 1.0153397e-38
0.12895046 2.7288563 1.4389368 1.0245232e-38
0.14510143 2.7252569 1.4389772 1.0337428e-38
0.16219008 2.7316113 1.4396703 1.0521459e-38
0.38785049 2.7278285 1.4319234 5.6318676e-39
0.076191291 2.747637 1.4396548 4.2449562e-39
0.082479179 2.7448678 1.439968 4.7052169e-39
0.11048586 2.7489161 1.4394825 4.0620027e-39
0.19661449 2.7519629 1.4382796 2.0333359e-39
0.20209484 2.7505572 1.4388707 1.8482244e-39
0.23678523 2.7508159 1.43908 2.1244497e-39
0.24194591 2.7506373 1.4389586 2.0322541e-39
0.29965937 2.7493055 1.4394064 2.3081221e-39
0.30927563 2.748661 1.4382535 1.5701984e-39
0.3404423 2.7469711 1.4394484 1.4779999e-39
0.37865239 2.7490611 1.4269187 5.5400251e-39
0.38546064 2.7488835 1.4348063 9.602032e-39
0.37816784 2.7724438 1.4243412 1.3293104e-38
0.38284782 2.7693968 1.4345171 1.3385657e-38
0.3775712 2.7825768 1.4244875 1.4675318e-38
0.39220467 2.7850492 1.4293236 1.0523999e-38
0.40153447 2.7875221 1.4332501 7.8467207e-39
0.29196402 -0.049103994 1.4482781 1.5665998e-39
0.20828199 -0.020383298 1.4539132 9.3153249e-39
0.20804557 -0.01631161 1.4511917 9.4075206e-39
0.22215268 -0.011365175 1.452408 9.4997134e-39
0.33570346 -0.011750221 1.440691 1.8355602e-38
0.34338894 -0.0039839176 1.4507769 1.5961035e-38
0.091659419 0.01730809 1.4523916 6.6409342e-39
0.10971976 0.01299838 1.4576138 5.8104575e-39
0.13182685 0.011396844 1.4568276 4.6119157e-39
0.1475884 0.012713832 1.4557046 4.9810583e-39
0.16970143 0.015237689 1.4587778 2.7687303e-39
0.18422751 0.019073406 1.4589729 1.4772769e-39
0.23364736 0.0062299669 1.4455366 6.0881233e-39
0.25058356 0.014364153 1.4535109 7.286305e-39
0.26362062 0.019711614 1.4573264 6.640937e-39
0.31557217 0.0083121443 1.4572165 1.272657e-38
0.32989356 0.012794668 1.4503386 1.484743e-38
0.34511471 0.0071103969 1.449226 1.2725509e-38
0.073936917 0.034947071 1.4450042 5.1665258e-39
0.091772422 0.029684605 1.4520671 7.1944653e-39
0.11066657 0.030644543 1.4525083 7.3788566e-39
0.12998313 0.030259974 1.4535857 7.1019123e-39
0.14933594 0.029813897 1.4536896 7.8387557e-39
0.17157628 0.029873773 1.4542378 5.0728938e-39
0.1884764 0.0294089 1.4552943 2.1215645e-39
0.20696177 0.035649173 1.4564619 1.4758377e-39
0.25787365 0.023374677 1.4529431 9.0358598e-39
0.27287555 0.030335229 1.4576007 1.0971604e-38
0.29079273 0.031796981 1.4582291 1.2446728e-38
0.31135562 0.031651128 1.4588007 1.4382835e-38
0.33104941 0.030236948 1.4534342 1.4753428e-38
0.072583176 0.049001694 1.4444319 2.4899827e-39
0.092838086 0.05238121 1.4475814 1.7520575e-39
0.10997321 0.048617974 1.4490193 3.6895992e-39
0.13008882 0.050425261 1.4476928 4.0573028e-39
0.15325674 0.048510723 1.4538881 6.3636256e-39
0.16935378 0.047303587 1.4486824 4.795944e-39
0.19188383 0.048881676 1.4482964 4.0573056e-39
0.21096861 0.048793737 1.4510005 2.4899841e-39
0.22882651 0.049235433 1.4523312 1.845695e-39
0.25190571 0.053244643 1.4541594 4.7048344e-39
0.27253792 0.049065679 1.4543191 1.272547e-38
0.29081458 0.051112726 1.4536383 1.1803875e-38
0.30999136 0.049777325 1.4555472 1.5952313e-38
0.33303311 0.049089316 1.4527323 1.807391e-38
0.077980563 0.06575904 1.4443405 1.1893913e-38
0.091571018 0.068272226 1.4473125 1.1709164e-38
0.10995965 0.070498697 1.4466635 1.2815867e-38
0.13145222 0.070656165 1.4464176 1.346124e-38
0.14994481 0.070213117 1.4484433 1.2999903e-38
0.17002921 0.069829613 1.4498481 1.2907348e-38
0.19030789 0.070410453 1.4498408 1.2538925e-38
0.20994718 0.070201457 1.4500915 1.3828585e-38
0.22968625 0.070489019 1.4509993 1.2261622e-38
0.25190192 0.070764914 1.4541216 9.7716269e-39
0.2689628 0.070833877 1.4517874 1.152334e-38
0.28931674 0.06962768 1.4527439 9.1262589e-39
0.30899343 0.071664207 1.4543597 1.0140051e-38
0.33159077 0.072886243 1.4545392 5.8997832e-39
0.34107119 0.077322043 1.4510688 4.3338995e-39
0.097470306 0.082741298 1.4430238 1.3277561e-38
0.10929106 0.087915279 1.4443836 1.3554146e-38
0.13026252 0.091068298 1.4473318 1.3923645e-38
0.14888196 0.090774395 1.4484791 1.447682e-38
0.17012739 0.08924596 1.4492303 1.5121829e-38
0.18936935 0.090079747 1.449917 1.5675362e-38
0.210206 0.089793734 1.4519212 1.6320373e-38
0.22971244 0.089722849 1.453246 1.6781352e-38
0.25130248 0.090537265 1.4546214 1.7242329e-38
0.27089107 0.089728408 1.4543912 1.7702947e-38
0.29068434 0.089535311 1.4542139 1.8163568e-38
0.31042585 0.090101093 1.4548669 1.8624543e-38
0.33109713 0.089333966 1.4537643 1.8901144e-38
0.34233284 0.090345636 1.4515953 1.8073201e-38
0.11793196 0.1045868 1.445881 1.3923646e-38
0.12989645 0.10828302 1.4455081 1.4384623e-38
0.14994329 0.1098659 1.4484547 1.4845244e-38
0.16844898 0.10940269 1.4488908 1.5306223e-38
0.19073713 0.1091253 1.4506552 1.5859394e-38
0.21036221 0.11011295 1.4521869 1.6320374e-38
0.22932354 0.11038666 1.4529622 1.6689517e-38
0.24961464 0.10884983 1.4541079 1.7242329e-38
0.26962689 0.10930622 1.4542798 1.761111e-38
0.28991866 0.10895656 1.4558145 1.7887338e-38
0.31076533 0.11035446 1.4571292 1.8163928e-38
0.33092761 0.11016718 1.4562383 1.8441239e-38
0.34300467 0.11029368 1.4510168 1.76133e-38
0.13548656 0.12548895 1.4420972 1.4569381e-38
0.15167114 0.1277578 1.4457734 1.4753413e-38
0.17069246 0.12949869 1.4490647 1.5029998e-38
0.19028376 0.13004167 1.4513284 1.5398778e-38
0.21085279 0.13087185 1.453172 1.5767559e-38
0.23123908 0.12997548 1.4546398 1.6320374e-38
0.25002876 0.13070484 1.4547154 1.6689515e-38
0.26985893 0.12970401 1.4555006 1.7150135e-38
0.29132128 0.12994321 1.457208 1.751892e-38
0.30977383 0.12854303 1.4567156 1.7703308e-38
0.330248 0.12951781 1.4579735 1.8072096e-38
0.3441062 0.13041177 1.4508834 1.7428552e-38
0.15151158 0.14178747 1.4437642 1.456902e-38
0.17314428 0.14711212 1.4499533 1.4661217e-38
0.19078517 0.15038101 1.4527191 1.4753055e-38
0.20930676 0.14999582 1.4534916 1.5121836e-38
0.22935115 0.14983341 1.4542583 1.5490978e-38
0.24915403 0.149481 1.4551907 1.604379e-38
0.26943669 0.15050036 1.4566392 1.641257e-38
0.28987291 0.14951219 1.4584486 1.6689518e-38
0.3094838 0.1499722 1.4577203 1.705794e-38
0.32790422 0.15064061 1.4583395 1.733453e-38
0.34501481 0.15041967 1.4513428 1.7060129e-38
0.19238016 0.16460365 1.4513038 1.3739982e-38
0.21039827 0.16919646 1.4542876 1.3923655e-38
0.22940622 0.16968086 1.455476 1.4292437e-38
0.25039473 0.17034794 1.4565088 1.4753415e-38
0.26981726 0.17004624 1.4572856 1.5214752e-38
0.29134527 0.17042461 1.4585223 1.567537e-38
0.31075153 0.16949733 1.458146 1.6044153e-38
0.32973865 0.16993468 1.458077 1.6412575e-38
0.34585264 0.17013639 1.4521562 1.6599151e-38
0.21505871 0.18825343 1.4522982 1.318645e-38
0.2302399 0.1886708 1.4550811 1.3370841e-38
0.25005674 0.18996285 1.4568051 1.3463038e-38
0.27012762 0.18988009 1.4579202 1.3739625e-38
0.2907232 0.19049598 1.4587752 1.4016212e-38
0.31064349 0.19001071 1.4590966 1.4384993e-38
0.32905391 0.19116202 1.4596107 1.447719e-38
0.34781882 0.18969288 1.4513654 1.5770118e-38
0.059722334 0.21880805 1.4457066 1.2918108e-39
0.070037425 0.21922815 1.4443405 1.2914521e-39
0.23417746 0.20238189 1.451537 1.3186453e-38
0.25150457 0.20528443 1.4560467 1.3370841e-38
0.27014711 0.20921974 1.4580865 1.3279011e-38
0.29005417 0.20933767 1.45883 1.3462682e-38
0.3099108 0.2096782 1.4591621 1.3555234e-38
0.32655394 0.20980807 1.4594793 1.3555235e-38
0.34871817 0.20941345 1.4513113 1.4941076e-38
0.056162022 0.2314159 1.4441298 8.0235141e-39
0.068445109 0.22953686 1.445541 4.6112038e-39
0.088947818 0.23412763 1.4483124 2.2141202e-39
0.10812046 0.23700719 1.4508125 1.1992522e-39
0.27368882 0.22899675 1.4544713 1.3738207e-38
0.28964174 0.23083955 1.4581565 1.3461974e-38
0.30658451 0.23148958 1.4595991 1.3278295e-38
0.32827792 0.22313316 1.4594015 1.3554878e-38
0.3488456 0.22929849 1.4517578 1.5216948e-38
0.056573074 0.24989983 1.4450294 1.1159239e-38
0.069550574 0.25141069 1.4459679 1.1158882e-38
0.08972273 0.2492431 1.447449 1.0790099e-38
0.11028785 0.24967566 1.4476892 6.9164519e-39
0.13100933 0.2506524 1.4490597 4.0573126e-39
0.14832774 0.25141534 1.4497068 3.9643981e-39
0.17135577 0.25216076 1.4539768 3.5952554e-39
0.19000356 0.2538965 1.4540316 3.134636e-39
0.21044864 0.25661406 1.4558419 2.9506077e-39
0.23065421 0.25657073 1.4570017 1.2910891e-39
0.25107005 0.25432006 1.4574243 4.7019687e-39
0.26955542 0.25689176 1.457799 1.4382507e-38
0.28921852 0.25100049 1.4573419 1.392083e-38
0.30570197 0.25109249 1.4595786 1.5027537e-38
0.32367313 0.25468624 1.4599038 1.5304126e-38
0.35012931 0.25079519 1.4527541 1.6873981e-38
0.057305396 0.26449636 1.4462198 1.0697906e-38
0.070545226 0.26983982 1.4474524 1.0514234e-38
0.090507098 0.2708551 1.4470366 1.0605709e-38
0.11022403 0.26916057 1.4476302 1.0697905e-38
0.1305259 0.27069387 1.4489282 1.07901e-38
0.14953932 0.27052224 1.450394 1.0974489e-38
0.17046155 0.26998073 1.4526218 1.1065964e-38
0.19075911 0.27066615 1.4544674 1.0973771e-38
0.21116664 0.27022064 1.455296 9.8670666e-39
0.22962445 0.26998609 1.4551753 1.2725507e-38
0.25004384 0.26952904 1.457635 1.1249663e-38
0.27067521 0.2706565 1.4590065 1.3921543e-38
0.28969404 0.26940411 1.4590003 1.4197418e-38
0.30500799 0.26981124 1.4596161 1.4473297e-38
0.33494344 0.27560788 1.459286 1.4934994e-38
0.3500585 0.26943493 1.4525427 1.6965106e-38
0.056601394 0.29402131 1.4461763 9.7759527e-39
0.070547722 0.2896691 1.4484234 9.9607027e-39
0.089779153 0.28949097 1.4471024 9.9607013e-39
0.1095665 0.28974453 1.4470903 9.9603426e-39
0.12885974 0.28933835 1.4493356 1.0144732e-38
0.15030171 0.29087323 1.4514595 1.0144732e-38
0.17049459 0.28995723 1.4527361 1.0236925e-38
0.18837886 0.28948054 1.4526445 1.0144731e-38
0.21078809 0.28998205 1.4554062 1.0144734e-38
0.23074292 0.29041848 1.4567566 1.291134e-38
0.2511577 0.29032129 1.4581037 1.3095742e-38
0.26862755 0.29024649 1.4579259 1.3091076e-38
0.2887013 0.28999105 1.4587644 1.364246e-38
0.30869126 0.29213709 1.459609 1.3827932e-38
0.33248115 0.28743392 1.4589449 1.4381464e-38
0.35032317 0.28935641 1.4529433 1.6596326e-38
0.05534086 0.3102029 1.4458433 9.2231405e-39
0.06964241 0.31021902 1.4468132 9.2235006e-39
0.089530416 0.30976987 1.4470707 9.3153361e-39
0.11024944 0.31022435 1.4481071 9.314976e-39
0.12945041 0.30942571 1.4501215 9.4993659e-39
0.14926647 0.30920494 1.4514462 9.5915601e-39
0.16990428 0.31058314 1.4521239 9.5915601e-39
0.19054808 0.31005013 1.4530133 9.4993631e-39
0.21114297 0.31006041 1.4554713 9.4990071e-39
0.2302209 0.30985323 1.4567012 1.2266331e-38
0.2506071 0.31001046 1.4577848 1.2819157e-38
0.26916325 0.30981702 1.4577565 1.2906688e-38
0.28996119 0.31053323 1.4591191 1.3550269e-38
0.30657411 0.3065061 1.4595228 1.3736095e-38
0.32401064 0.30965966 1.45941 1.4012682e-38
0.35163668 0.31011969 1.4493951 1.724206e-38
0.053985246 0.32834417 1.4444481 8.7625239e-39
0.070681088 0.32992747 1.4463688 8.9461963e-39
0.089252345 0.32881093 1.4479939 8.8543608e-39
0.10957468 0.32962671 1.4488491 8.9461921e-39
0.13001382 0.32954094 1.4500856 9.0387464e-39
0.1509704 0.32890925 1.4524479 9.1309435e-39
0.16913272 0.329501 1.4522786 9.3149732e-39
0.18972243 0.33063963 1.4534266 9.222779e-39
0.21005395 0.33008352 1.4546225 9.4071702e-39
0.23147567 0.33016592 1.4572543 1.2266329e-38
0.24846214 0.32985082 1.4563966 1.2910992e-38
0.27004972 0.33038446 1.4580641 1.2999243e-38
0.28770804 0.32846874 1.4592799 1.3642465e-38
0.31185138 0.33107793 1.4596437 1.4011966e-38
0.32657185 0.33017746 1.4595407 1.4104879e-38
0.35170501 0.32958043 1.4500237 1.7149505e-38
0.079547763 0.34068412 1.4450281 8.8536433e-39
0.091766678 0.34713277 1.4475125 8.761805e-39
0.11061045 0.34939116 1.4490998 8.7618022e-39
0.13135839 0.34913832 1.451726 8.7618008e-39
0.15026589 0.35016963 1.4516027 8.9461907e-39
0.169553 0.34915066 1.451769 9.0383849e-39
0.19075648 0.35002217 1.4542131 9.2224188e-39
0.20940398 0.34954622 1.4549497 9.4068115e-39
0.23131178 0.34977543 1.4566734 1.2358166e-38
0.25072566 0.35020596 1.4573013 1.3187938e-38
0.27060875 0.35028437 1.4585093 1.3275829e-38
0.28827175 0.34998506 1.4592551 1.410308e-38
0.31043592 0.34778526 1.4595405 1.4288551e-38
0.32636851 0.34734702 1.4598169 1.428855e-38
0.35199469 0.35011122 1.4505985 1.7057308e-38
0.11438885 0.36103278 1.4408307 9.0376702e-39
0.13036187 0.36198047 1.4457631 8.853995e-39
0.15129258 0.36675715 1.4481096 8.8536349e-39
0.16959618 0.36831921 1.4503168 8.9458291e-39
0.19028202 0.37010711 1.453477 8.9461879e-39
0.21019201 0.36963025 1.4559567 9.0383849e-39
0.230094 0.3696143 1.456688 1.1066703e-38
0.24910623 0.37026647 1.4568893 1.2819157e-38
0.26846781 0.36976674 1.4577346 1.2999602e-38
0.28675434 0.36801863 1.4592353 1.3826496e-38
0.31118417 0.37104341 1.4595121 1.3643185e-38
0.32473481 0.37202507 1.4595999 1.3827575e-38
0.35325724 0.36989471 1.4519067 1.6873277e-38
0.19945544 0.38104415 1.452523 8.669601e-39
0.21151917 0.38417441 1.4556785 8.6685206e-39
0.23157963 0.386911 1.4570314 8.7603575e-39
0.24885611 0.38894501 1.4567251 9.8667148e-39
0.26727623 0.38928381 1.4583974 1.1432268e-38
0.28693599 0.38767084 1.45948 1.2811632e-38
0.30577791 0.38748068 1.4596994 1.327297e-38
0.32841724 0.38036591 1.459604 1.3366958e-38
0.35413599 0.39045462 1.4512482 1.6781086e-38
0.25738573 0.40147647 1.4589008 1.0140038e-38
0.27275535 0.40482962 1.4589989 1.0600666e-38
0.28929985 0.41503584 1.4592432 1.2903376e-38
0.35391361 0.41003168 1.4520183 1.6965114e-38
0.30956084 0.43851241 1.4597466 1.8067691e-38
0.35400969 0.4297466 1.4521828 1.7702672e-38
0.30817318 0.44288331 1.459033 1.8529001e-38
0.35331386 0.45072791 1.4513873 1.8716816e-38
0.051776044 0.47354293 1.4495685 1.0600994e-38
0.070273116 0.47352269 1.4509629 1.0416597e-38
0.089394651 0.4717769 1.4529046 1.0599534e-38
0.10912399 0.47548833 1.4530277 1.0232197e-38
0.12429963 0.47750831 1.4536135 1.0967945e-38
0.35458195 0.47055128 1.4533725 1.8993397e-38
0.051676575 0.49083981 1.4484879 9.4993659e-39
0.069832742 0.48936111 1.4495633 9.0387492e-39
0.091203026 0.49095941 1.4513028 8.6699681e-39
0.10982072 0.48951158 1.4506575 8.5774068e-39
0.13123187 0.48921314 1.4516083 8.9447375e-39
0.14946733 0.49181911 1.4518843 9.2206013e-39
0.16954955 0.49248773 1.4541628 9.6797746e-39
0.18855485 0.49402162 1.4548978 1.0047466e-38
0.20883262 0.49567503 1.4555843 1.0415875e-38
0.22941625 0.49702358 1.4569502 1.2075753e-38
0.25064847 0.49738783 1.4578453 1.4567547e-38
0.26906273 0.49696967 1.4583964 1.4472133e-38
0.28301153 0.49862984 1.4593972 1.3912559e-38
0.31552503 0.49985242 1.4594004 1.8621358e-38
0.33716041 0.49199536 1.4592971 1.9083409e-38
0.35299799 0.48997948 1.451835 1.9085954e-38
0.039568186 0.51950741 1.4468925 9.2235006e-39
0.051544715 0.51040947 1.4498508 9.2235006e-39
0.070125036 0.51033038 1.4502081 8.8543594e-39
0.090065815 0.50961852 1.4497305 8.7618008e-39
0.1099114 0.50953668 1.4496665 8.853995e-39
0.13091987 0.50968379 1.4511251 8.8539922e-39
0.14953983 0.50986218 1.4524159 8.8536321e-39
0.17024592 0.51043373 1.4527841 8.9458277e-39
0.19079068 0.50988793 1.4537034 9.1291372e-39
0.20928901 0.51047629 1.4546231 9.3128096e-39
0.23030719 0.50982785 1.4560474 1.1342204e-38
0.24873941 0.50955427 1.4558284 1.3279052e-38
0.2708056 0.51042926 1.4575262 1.4104505e-38
0.28915167 0.51117587 1.4587302 1.6683467e-38
0.30918294 0.51189947 1.4593641 1.8253301e-38
0.33143881 0.51177776 1.4588698 1.8899384e-38
0.35232767 0.50973731 1.4531944 1.9269982e-38
0.03499645 0.52411956 1.4427145 9.4078891e-39
0.051887006 0.52398676 1.44532 9.2231363e-39
0.070144996 0.5253675 1.4464564 9.0387464e-39
0.089557037 0.52607965 1.4476285 9.038745e-39
0.11061156 0.52697814 1.4497656 8.9465494e-39
0.13068683 0.52988702 1.4505255 9.1305819e-39
0.15070128 0.52838784 1.452859 9.1302204e-39
0.16953349 0.53072709 1.4531627 9.4064444e-39
0.19075294 0.52984351 1.4545311 9.5911915e-39
0.21044451 0.53034979 1.4559383 1.0235479e-38
0.2311711 0.52997112 1.457083 1.1987563e-38
0.24916598 0.52981967 1.456849 1.5214429e-38
0.27091721 0.52975267 1.4579701 1.7057269e-38
0.290095 0.5294888 1.4591956 1.788452e-38
0.31068563 0.5284133 1.459277 1.8253661e-38
0.33126393 0.52880472 1.4591693 1.880755e-38
0.35201967 0.5301581 1.4523139 1.9362179e-38
0.13271822 0.54152423 1.4466912 9.4993631e-39
0.15338956 0.54183573 1.4497513 9.6837529e-39
0.16995817 0.54404163 1.4484607 1.0328758e-38
0.18950622 0.54640526 1.4513081 1.1250351e-38
0.21081875 0.54771197 1.4550717 1.2171587e-38
0.231142 0.54938745 1.4570909 1.3462321e-38
0.25144285 0.54970533 1.4581481 1.5213677e-38
0.26668012 0.54953468 1.4584312 1.6320031e-38
0.28766853 0.54734343 1.4595846 1.7608641e-38
0.31043229 0.54752046 1.4594772 1.8161824e-38
0.33098984 0.54704046 1.4593805 1.8807553e-38
0.35332447 0.54937053 1.4511315 1.9454379e-38
0.26887468 0.56041968 1.4589964 1.6043795e-38
0.28204519 0.56110811 1.4594464 1.6320742e-38
0.33312702 0.56320328 1.4595582 1.8899391e-38
0.3546547 0.56952202 1.4503394 1.9454382e-38
0.35451722 0.59051901 1.4508306 1.9362545e-38
0.050752684 0.61749214 1.4547536 7.7454839e-39
0.070387162 0.61715567 1.4576539 7.5621744e-39
0.080768883 0.61636883 1.4563503 7.1004802e-39
0.12859529 0.61970645 1.459832 8.1142692e-39
0.35335755 0.61024594 1.4502481 1.9362545e-38
0.037447207 0.63175935 1.4494241 1.1896442e-38
0.050519019 0.63040453 1.4485756 1.1896444e-38
0.070083782 0.62919974 1.4484769 1.1988639e-38
0.091140583 0.63060606 1.4509021 1.1988642e-38
0.11060835 0.62921685 1.4534391 1.1527305e-38
0.12894431 0.63052583 1.4523108 1.0974489e-38
0.15035518 0.62990046 1.4538631 9.3149718e-39
0.17026427 0.62990808 1.4565717 8.3004639e-39
0.18988539 0.63218522 1.4582292 8.484858e-39
0.21100836 0.63494337 1.458971 8.6692535e-39
0.22707102 0.6358459 1.4588311 8.9458446e-39
0.2501438 0.6386857 1.459522 1.3005357e-38
0.26768363 0.63857728 1.4595319 1.2542594e-38
0.28927359 0.63818705 1.4592996 1.3271905e-38
0.32175115 0.63445282 1.459983 1.8530257e-38
0.35293704 0.63030845 1.4518734 1.9361824e-38
0.037723079 0.65033531 1.4498458 1.2265589e-38
0.05116361 0.65019715 1.4498371 1.2265589e-38
0.070266493 0.65030402 1.4495708 1.1988644e-38
0.09097179 0.64957577 1.4506809 1.1712057e-38
0.11149178 0.64971799 1.4516429 1.1067047e-38
0.13164082 0.64985806 1.4526912 9.9603426e-39
0.14985637 0.6499697 1.4539273 9.0380332e-39
0.17096788 0.65008759 1.4556568 8.9461949e-39
0.19104049 0.65073705 1.4567368 8.9458389e-39
0.20899595 0.6503796 1.4568521 8.9458418e-39
0.2307934 0.65030211 1.4580647 1.0237667e-38
0.25112575 0.65210545 1.4587672 1.3282306e-38
0.26934046 0.65142757 1.4593658 1.355638e-38
0.28816789 0.65150499 1.4589049 1.548638e-38
0.30566868 0.65348351 1.4594892 1.7700496e-38
0.32960886 0.65408653 1.4594146 1.8623166e-38
0.35102606 0.65002275 1.4512109 1.9177791e-38
0.036132976 0.67041135 1.4494181 1.1897528e-38
0.049205083 0.66893148 1.4487023 1.1712418e-38
0.06990765 0.66990417 1.4497666 1.1436549e-38
0.090629794 0.66952163 1.4512717 1.0975571e-38
0.11132219 0.67038131 1.45215 9.9607055e-39
0.12963028 0.67108393 1.4516397 9.3146201e-39
0.14928277 0.67058247 1.4531331 9.2224258e-39
0.16913167 0.66992152 1.4548185 9.2231447e-39
0.19133133 0.67061025 1.4570534 9.3149816e-39
0.20951012 0.6704067 1.4560963 9.6834026e-39
0.22921774 0.67010921 1.4565663 1.1343653e-38
0.2494694 0.67028743 1.458123 1.4665232e-38
0.26989371 0.67084247 1.4586633 1.5675429e-38
0.2892845 0.66996235 1.4587531 1.7516105e-38
0.30839744 0.66937512 1.4595466 1.816183e-38
0.33235124 0.67060399 1.4597236 1.853097e-38
0.35102308 0.67006731 1.4517821 1.9085595e-38
0.036535665 0.68928611 1.4506664 1.2081918e-38
0.050253171 0.69033772 1.4497156 1.1989363e-38
0.069922447 0.6897921 1.4495894 1.1712777e-38
0.089456655 0.68997532 1.4507647 1.1159606e-38
0.10909007 0.69005316 1.4508742 1.0145457e-38
0.13052493 0.69025171 1.4524229 9.5000903e-39
0.15005642 0.68917346 1.453034 9.5915671e-39
0.17098971 0.69189256 1.4541482 9.9603482e-39
0.19039847 0.68953806 1.4552109 1.0236576e-38
0.21044017 0.6906262 1.4557092 1.1251444e-38
0.23132247 0.69050241 1.4570516 1.3280118e-38
0.25018117 0.69002175 1.4577178 1.6046721e-38
0.26941076 0.68933493 1.4586594 1.6966159e-38
0.29126912 0.68845296 1.4591639 1.7977436e-38
0.31093445 0.6915673 1.459638 1.8161829e-38
0.33245498 0.68810648 1.4594685 1.8438776e-38
0.34902552 0.68998849 1.4527863 1.899268e-38
0.033626549 0.7117489 1.4483632 1.226667e-38
0.050251894 0.71016014 1.4486401 1.2082278e-38
0.071403883 0.70987606 1.4503484 1.1989363e-38
0.08968439 0.7095775 1.4496307 1.1436552e-38
0.10879509 0.70984411 1.449316 1.0698631e-38
0.12884271 0.71004122 1.451126 1.01451e-38
0.15065764 0.70968646 1.4532886 1.0329847e-38
0.17041382 0.70953947 1.4534298 1.0883381e-38
0.190262 0.71092421 1.4545929 1.1896455e-38
0.2104782 0.71019536 1.4565077 1.2449627e-38
0.23087965 0.70959669 1.457656 1.4109873e-38
0.25016615 0.71005398 1.4586443 1.7060149e-38
0.26952443 0.70950711 1.4585021 1.7519691e-38
0.28864673 0.70732325 1.4590991 1.7977437e-38
0.31290832 0.70654321 1.4596659 1.8161829e-38
0.33246684 0.70913261 1.459276 1.834658e-38
0.34777942 0.71008539 1.4517776 1.8900125e-38
0.03245322 0.73000574 1.4490528 1.2910601e-38
0.049894739 0.72957897 1.4489971 1.3002794e-38
0.071094655 0.73046231 1.4489435 1.3187185e-38
0.0900089 0.72952133 1.4488746 1.3003513e-38
0.10992148 0.73044342 1.449739 1.3095349e-38
0.12990177 0.73048604 1.4510163 1.3187187e-38
0.15026657 0.72996873 1.4530252 1.3556328e-38
0.16970165 0.72921681 1.4533211 1.3925111e-38
0.19126809 0.73087686 1.4553634 1.4477926e-38
0.21034332 0.73053086 1.4563905 1.4754873e-38
0.22989988 0.72917134 1.4575225 1.576903e-38
0.25112396 0.72960514 1.4582927 1.7705515e-38
0.26961815 0.72977829 1.457772 1.7611167e-38
0.2894842 0.73098087 1.4591212 1.7793406e-38
0.30834472 0.72762817 1.4597398 1.7977797e-38
0.33224016 0.72966421 1.4591113 1.816219e-38
0.34418625 0.72948939 1.4521619 1.8623535e-38
0.032697052 0.74984503 1.4492912 1.3002794e-38
0.050199039 0.74979502 1.4495962 1.3094991e-38
0.070080057 0.7503373 1.4492363 1.3371578e-38
0.089219555 0.7501204 1.4489205 1.3648164e-38
0.10911839 0.74958223 1.4501842 1.3741078e-38
0.13031107 0.75021625 1.4516114 1.4017306e-38
0.15184639 0.75017345 1.4525467 1.4293893e-38
0.16870779 0.7501533 1.4526492 1.457012e-38
0.1900869 0.74980128 1.4551172 1.4846707e-38
0.2101136 0.75122201 1.4566443 1.5031099e-38
0.23044944 0.74970418 1.4577824 1.5953421e-38
0.2498527 0.74964547 1.45761 1.761368e-38
0.26848567 0.749919 1.4580864 1.7519332e-38
0.28868297 0.74759799 1.4593599 1.7700853e-38
0.31038627 0.75079888 1.4593574 1.7793408e-38
0.33076683 0.74999642 1.4590534 1.8069634e-38
0.34414327 0.75039744 1.4513692 1.8530982e-38
0.029914012 0.77063656 1.447943 1.2726567e-38
0.050143763 0.77082449 1.4488503 1.2819483e-38
0.069320515 0.76911575 1.4490221 1.309607e-38
0.090441167 0.76987767 1.4494897 1.3464494e-38
0.11089543 0.76988792 1.4504972 1.355705e-38
0.12906305 0.77001733 1.4512267 1.374144e-38
0.14910404 0.76988745 1.4525634 1.4017666e-38
0.16943595 0.77067387 1.4529705 1.4293895e-38
0.19021493 0.76996017 1.4552697 1.4570121e-38
0.20982254 0.76926184 1.4566107 1.4754513e-38
0.23137611 0.77042413 1.4578516 1.5953424e-38
0.24983191 0.77032852 1.4576397 1.7429293e-38
0.27012435 0.76903111 1.4588097 1.7242748e-38
0.28961679 0.76830983 1.4594219 1.7516463e-38
0.31184238 0.76795834 1.4593633 1.760866e-38
0.33176655 0.76953828 1.4591496 1.779305e-38
0.34505364 0.77033842 1.4507293 1.8346954e-38
0.031458929 0.79104561 1.4501034 1.2450345e-38
0.05011607 0.7890178 1.450123 1.2635093e-38
0.070162661 0.78943235 1.449409 1.2911683e-38
0.088911511 0.7905125 1.4487369 1.3096076e-38
0.11018233 0.78989255 1.4507143 1.3372661e-38
0.13087323 0.79020375 1.4525319 1.3557051e-38
0.15013209 0.78938776 1.452372 1.3833638e-38
0.17085615 0.79022115 1.4535447 1.4018029e-38
0.19066252 0.78951734 1.4556773 1.4294255e-38
0.20941126 0.79046208 1.4568653 1.4478286e-38
0.23019694 0.78952754 1.4581481 1.5308774e-38
0.24911894 0.79061931 1.4577986 1.7153067e-38
0.26845801 0.79074204 1.4585334 1.6966881e-38
0.28812575 0.78914011 1.4596492 1.7239519e-38
0.3150709 0.79288119 1.4594213 1.7332075e-38
0.32888597 0.78729784 1.4593375 1.7516466e-38
0.34784341 0.78961742 1.4501357 1.8346958e-38
0.031596556 0.80904716 1.45087 1.217412e-38
0.050307572 0.81001073 1.4503173 1.2358511e-38
0.070254847 0.81014729 1.4502382 1.2543262e-38
0.09024515 0.80976719 1.4510441 1.2819846e-38
0.11027972 0.81049472 1.4512954 1.3096073e-38
0.12916814 0.80992836 1.4513412 1.337266e-38
0.15016335 0.81036395 1.4519351 1.3557051e-38
0.17059094 0.80958939 1.4539498 1.3833279e-38
0.19028907 0.80988616 1.4552398 1.3925476e-38
0.21126091 0.81099766 1.4569079 1.4109868e-38
0.23019703 0.8095116 1.4571152 1.5400616e-38
0.2506645 0.80901796 1.4585828 1.6877202e-38
0.27026725 0.80827039 1.4591724 1.6690297e-38
0.28756687 0.80648255 1.4594771 1.6963294e-38
0.30818352 0.81023282 1.4594229 1.6963295e-38
0.32754907 0.81529248 1.4596766 1.7055492e-38
0.34940624 0.81011981 1.4502625 1.8162569e-38
0.031115435 0.8295415 1.451368 1.1806057e-38
0.049808417 0.83100492 1.4511305 1.2082284e-38
0.069264255 0.83019978 1.4504435 1.2266675e-38
0.090823747 0.83055729 1.4511361 1.235887e-38
0.11033379 0.82963228 1.4515265 1.2727293e-38
0.12927085 0.82973415 1.4518628 1.3004239e-38
0.14949639 0.82972747 1.4530296 1.3187913e-38
0.17027561 0.82992887 1.4548721 1.3372304e-38
0.19000252 0.82995272 1.4565935 1.3556695e-38
0.21112172 0.83027875 1.4580209 1.3648891e-38
0.23063302 0.82975596 1.4575602 1.5032554e-38
0.24950473 0.83073318 1.458444 1.650914e-38
0.26731309 0.82643551 1.4594656 1.6414789e-38
0.29433787 0.83097017 1.4594406 1.6686351e-38
0.30629483 0.82404882 1.4592441 1.6778907e-38
0.32370874 0.82751769 1.4597459 1.6686352e-38
0.35248154 0.82953513 1.4518652 1.797782e-38
0.034292497 0.85058367 1.4543048 1.1437276e-38
0.04936764 0.84932834 1.4520817 1.1805699e-38
0.071260728 0.84949023 1.4528586 1.198973e-38
0.090731822 0.84856319 1.452813 1.2082284e-38
0.11152308 0.85127115 1.4538254 1.2266317e-38
0.12850426 0.84980023 1.4524592 1.2635099e-38
0.14948577 0.85043252 1.4539113 1.2911327e-38
0.1692335 0.84956181 1.4549054 1.3003523e-38
0.19052435 0.84986579 1.4569643 1.3187194e-38
0.20901586 0.85065949 1.4567927 1.3371947e-38
0.23110455 0.84984738 1.4585564 1.4663413e-38
0.24994257 0.84973556 1.4593785 1.5862692e-38
0.26900271 0.84932107 1.4596813 1.6044929e-38
0.28916228 0.85012728 1.4592799 1.6132457e-38
0.30429921 0.8524797 1.4596515 1.6409404e-38
0.35444266 0.84970492 1.4505821 1.7332452e-38
