# .PCD v0.7 - Point Cloud Data file format
VERSION 0.7
FIELDS x y z rgb
SIZE 4 4 4 4
TYPE F F F F
COUNT 1 1 1 1
WIDTH 1041
HEIGHT 1
VIEWPOINT 0 0 0 1 0 0 0
POINTS 1041
DATA ascii
1.3342627 1.5502071 0.73383695 4.0566077e-39
1.334401 1.5704665 0.73389119 4.0566077e-39
1.3345153 1.5903114 0.73409909 4.0566077e-39
1.3345938 1.6087725 0.73341912 4.0566077e-39
1.3342235 1.6299722 0.73267472 4.0566077e-39
1.3346128 1.6489931 0.73282725 4.0566077e-39
1.3350283 1.6692821 0.73298985 4.0566077e-39
1.3354437 1.689571 0.73315233 4.0566077e-39
1.3358591 1.7098601 0.73331481 4.0566077e-39
1.3362745 1.7301489 0.73347747 4.0566077e-39
1.3366898 1.7504381 0.73364007 4.0566077e-39
1.3371052 1.7707269 0.73380256 4.0566077e-39
0.89674425 1.7974595 0.72869778 0
0.90799296 1.7927288 0.72896576 0
0.92947251 1.7909914 0.73136574 0
0.94928098 1.790586 0.73143637 0
0.97008526 1.7901679 0.73050386 0
0.98994362 1.7897782 0.72848415 0
1.0104665 1.789356 0.72877222 0
1.029979 1.7889426 0.73054677 0
1.0500512 1.7885257 0.73135096 0
1.0693905 1.7881329 0.73103273 0
1.0893402 1.7877343 0.729819 0
1.109575 1.7873186 0.72995955 0
1.1308095 1.786882 0.73016113 0
1.1516478 1.7864608 0.72944885 0
1.1724485 1.7860327 0.72966695 0
1.1884273 1.7857053 0.72965437 0
1.3375206 1.791016 0.73396516 4.0566077e-39
0.88600951 1.809207 0.73015016 9.219563e-40
1.3379101 1.8100369 0.73411751 4.0566077e-39
0.87871462 1.8289896 0.73171777 3.3190427e-39
1.3382995 1.8290577 0.7342701 4.0566077e-39
0.87884521 1.8501781 0.73165941 3.8722165e-39
1.3387148 1.8493468 0.73443264 4.0566077e-39
0.87925184 1.8700385 0.73181862 3.8722165e-39
1.3391302 1.8696357 0.73459518 4.0566077e-39
0.87967038 1.8904634 0.73006922 3.8722165e-39
1.3395456 1.8899248 0.7347576 4.0566077e-39
0.87993538 1.9033971 0.72909653 3.8722165e-39
0.88006067 1.9095163 0.72914559 3.8722165e-39
1.3398831 1.9064096 0.73488981 4.0566077e-39
1.3400908 1.9165541 0.73497105 4.0566077e-39
1.3403764 1.9305027 0.73508275 4.0566077e-39
0.88091427 1.9512161 0.72934914 3.6878252e-39
1.3407917 1.9507917 0.73524529 4.0566077e-39
0.88129699 1.9699115 0.73008859 3.8722165e-39
1.3412069 1.9710808 0.73540801 4.0566077e-39
0.88171339 1.9902431 0.72946143 3.8722165e-39
1.3415965 1.9901017 0.73556042 4.0566077e-39
0.88211912 2.0100698 0.73030883 3.8722165e-39
1.3419859 2.0091226 0.73571265 4.0566077e-39
0.88253486 2.030371 0.73011398 3.8722165e-39
1.3424014 2.0294113 0.73587525 4.0566077e-39
0.88294202 2.0502586 0.73027343 3.8722165e-39
1.3428167 2.0497005 0.73603785 4.0566077e-39
0.88334936 2.0701461 0.73043281 3.8722165e-39
1.343232 2.0699894 0.73620045 4.0566077e-39
0.88379675 2.0897019 0.73028082 3.9644121e-39
1.3436474 2.0902784 0.73636293 4.0566077e-39
0.89098251 2.1098964 0.72977507 5.1629553e-39
1.3440629 2.1105676 0.73652548 4.0566077e-39
0.90659028 2.124289 0.72992998 5.1629553e-39
1.075007 2.1253109 0.73554623 4.8863684e-39
1.0872279 2.1251395 0.7258029 4.5175859e-39
1.3444782 2.1308565 0.73668802 4.0566077e-39
1.3448677 2.1498775 0.73684043 4.0566077e-39
1.3452572 2.1688983 0.7369929 4.0566077e-39
1.3456724 2.1891875 0.73715544 4.0566077e-39
1.3460878 2.2094765 0.7373181 4.0566077e-39
1.3465033 2.2297654 0.73748064 4.0566077e-39
1.3469186 2.2500544 0.73764306 4.0566077e-39
1.3473338 2.2703435 0.73780519 4.0566077e-39
1.3477491 2.2906325 0.73796725 4.0566077e-39
1.3481643 2.3109219 0.73812938 4.0566077e-39
1.3485538 2.3299427 0.73828137 4.0566077e-39
1.348943 2.3489635 0.73843336 4.0566077e-39
1.3493582 2.3692527 0.73859555 4.0566077e-39
1.3497734 2.3895419 0.73875761 4.0566077e-39
1.3501889 2.409831 0.73891973 4.0566077e-39
1.3506039 2.4301202 0.7390818 4.0566077e-39
1.3510193 2.4504092 0.73924398 4.0566077e-39
1.3514345 2.4706984 0.73940623 4.0566077e-39
1.3518498 2.4909878 0.73956835 4.0566077e-39
1.3522393 2.5100086 0.73972028 4.0566077e-39
1.3526284 2.5290301 0.73987234 4.0566077e-39
1.3528879 2.5417106 0.73997372 4.0566077e-39
0.77469778 2.6363063 0.73175436 5.2472224e-39
0.77497804 2.6499915 0.73102492 4.8780783e-39
0.77538818 2.6700191 0.73095596 4.8780783e-39
0.77579695 2.6899946 0.73157388 4.8784384e-39
0.4101634 0.015087724 0.75990844 1.1247867e-38
0.42983893 0.015198478 0.75990993 1.1801041e-38
0.45104277 0.014446358 0.75991148 1.1155671e-38
0.46964541 0.014845808 0.75991291 1.1708845e-38
0.49030396 0.014966274 0.75991446 1.1432258e-38
0.51069808 0.015084644 0.75991589 1.1708845e-38
0.53081316 0.015201902 0.75991762 1.1432258e-38
0.55067426 0.015317191 0.75991899 1.1708845e-38
0.57026714 0.015431404 0.75992042 1.1801041e-38
0.58945483 0.015117343 0.75992548 1.1708845e-38
0.60870641 0.014330173 0.75992328 1.1432258e-38
0.62963742 0.014681348 0.75992501 1.1432258e-38
0.65027362 0.015025727 0.75992644 1.1801041e-38
0.67062128 0.014718175 0.75992805 1.1432258e-38
0.69068623 0.01505936 0.75992954 1.1616649e-38
0.70851189 0.015169422 0.75993079 1.1985432e-38
0.41076297 0.02980723 0.75990832 1.1708845e-38
0.42967087 0.029950282 0.75990999 1.2262019e-38
0.45094076 0.029693557 0.75991148 1.2262019e-38
0.46974567 0.030013867 0.75991285 1.2262019e-38
0.49046707 0.029760161 0.75991434 1.2262019e-38
0.51079571 0.030051138 0.75991595 1.2262019e-38
0.53097212 0.029800564 0.75991738 1.2262019e-38
0.55076927 0.03008746 0.75991887 1.2262019e-38
0.57042199 0.029839912 0.75992048 1.2262019e-38
0.58961582 0.030533442 0.75992197 1.2262019e-38
0.60857439 0.029892702 0.75992316 1.2262019e-38
0.6297673 0.030119147 0.75992471 1.2262019e-38
0.65027392 0.0300356 0.75992644 1.2262019e-38
0.67049491 0.02995418 0.75992793 1.2262019e-38
0.69081068 0.030175466 0.75992954 1.2262019e-38
0.70859087 0.029963909 0.75993097 1.2262019e-38
1.3350974 0.033692062 0.74764115 5.0707596e-39
0.41104579 0.049817402 0.75990844 1.1801041e-38
0.43000957 0.049590137 0.75990975 1.2262019e-38
0.45114422 0.049752913 0.7599116 1.2262019e-38
0.4696455 0.050367564 0.75991297 1.2262019e-38
0.4903039 0.049733754 0.75991428 1.2262019e-38
0.51069808 0.050134435 0.75991583 1.2262019e-38
0.53081328 0.049510565 0.7599175 1.2262019e-38
0.55067438 0.049907461 0.75991887 1.2262019e-38
0.57026714 0.049293201 0.75992054 1.2262019e-38
0.58961576 0.05051972 0.75992197 1.2262019e-38
0.60870636 0.050406165 0.7599231 1.2262019e-38
0.6296376 0.050499622 0.75992459 1.2262019e-38
0.65027374 0.049940001 0.7599265 1.2262019e-38
0.67062122 0.05003725 0.75992793 1.2262019e-38
0.69068617 0.050131299 0.7599296 1.2262019e-38
0.70851159 0.050343614 0.75993085 1.2262019e-38
1.3350974 0.050022654 0.74764115 5.0707596e-39
0.41048104 0.069834851 0.75990826 1.1708845e-38
0.42983934 0.069607243 0.75990993 1.2262019e-38
0.4510428 0.070229791 0.75991124 1.2262019e-38
0.46964619 0.07029473 0.75991273 1.2262019e-38
0.49030343 0.070044093 0.75991422 1.2262019e-38
0.51099199 0.070238397 0.75991589 1.2262019e-38
0.53081334 0.069892548 0.75991726 1.2262019e-38
0.55067438 0.070155792 0.75991887 1.2262019e-38
0.57026732 0.069409691 0.75992042 1.2262019e-38
0.5896157 0.070505992 0.75992185 1.2262019e-38
0.60870647 0.070263989 0.75992328 1.2262019e-38
0.62963748 0.070216574 0.75992483 1.2262019e-38
0.65027368 0.069518119 0.75992638 1.2262019e-38
0.67074722 0.070117652 0.75992805 1.2262019e-38
0.69068646 0.069759227 0.7599296 1.2262019e-38
0.70851189 0.070329219 0.75993085 1.2262019e-38
1.3350974 0.068865672 0.74764115 5.0707596e-39
0.41076291 0.089845106 0.7599082 1.1708845e-38
0.43000326 0.089979284 0.75990981 1.2262019e-38
0.45104343 0.090276934 0.75991136 1.2262019e-38
0.4695448 0.089784645 0.75991273 1.2262019e-38
0.4903039 0.090354443 0.7599144 1.2262019e-38
0.51040494 0.089872755 0.75991589 1.2262019e-38
0.53081292 0.089934826 0.75991738 1.2262019e-38
0.55067438 0.090404131 0.75991887 1.2262019e-38
0.57026732 0.089526191 0.7599203 1.2262019e-38
0.58961564 0.090492271 0.75992185 1.2262019e-38
0.60870647 0.090121843 0.7599231 1.2262019e-38
0.6296376 0.089933567 0.75992483 1.2262019e-38
0.65014541 0.08975859 0.7599262 1.2262019e-38
0.67062128 0.090214796 0.75992793 1.2262019e-38
0.69056153 0.090040326 0.75992954 1.2262019e-38
0.70843339 0.089911677 0.75993085 1.2262019e-38
1.3350974 0.08896482 0.74764103 5.0707596e-39
0.41104576 0.10984982 0.7599082 1.1801041e-38
0.42984083 0.10997399 0.75990993 1.2262019e-38
0.45094079 0.10988487 0.75991136 1.2262019e-38
0.46974576 0.10972004 0.75991273 1.2262019e-38
0.49014118 0.11033338 0.75991428 1.2262019e-38
0.51069814 0.10997669 0.75991589 1.2262019e-38
0.53081334 0.10997712 0.7599172 1.2262019e-38
0.55096048 0.11024069 0.75991869 1.2262019e-38
0.57026732 0.1096427 0.7599203 1.2262019e-38
0.58961564 0.11047854 0.75992185 1.2262019e-38
0.60870653 0.10997967 0.75992334 1.2262019e-38
0.6296379 0.10997915 0.75992477 1.2262019e-38
0.65027374 0.10998044 0.75992608 1.2262019e-38
0.67062163 0.10998002 0.75992793 1.2262019e-38
0.69094294 0.11030214 0.7599293 1.2262019e-38
0.70859092 0.1099043 0.75993079 1.2262019e-38
1.3350974 0.10906397 0.74764073 5.0707596e-39
0.41048092 0.12987801 0.75990808 1.1708845e-38
0.42967615 0.12997185 0.75990987 1.2262019e-38
0.45114422 0.12993897 0.75991124 1.2262019e-38
0.4696455 0.1300763 0.75991249 1.2262019e-38
0.49061903 0.12994036 0.75991428 1.2262019e-38
0.51059997 0.13006388 0.75991583 1.2262019e-38
0.53081322 0.13035908 0.75991732 1.2262019e-38
0.55067438 0.13005529 0.75991869 1.2262019e-38
0.57026738 0.12975916 0.75992024 1.2262019e-38
0.58961576 0.13046485 0.75992179 1.2262019e-38
0.60870647 0.12983751 0.75992316 1.2262019e-38
0.62963754 0.13002473 0.75992459 1.2262019e-38
0.65053779 0.12988214 0.7599262 1.2262019e-38
0.67062122 0.1297452 0.75992775 1.2262019e-38
0.6905579 0.13024195 0.75992954 1.2262019e-38
0.70874792 0.1298936 0.75993079 1.2262019e-38
1.3350974 0.12916318 0.74764073 5.0707596e-39
0.41076291 0.14988288 0.7599082 1.1708845e-38
0.42983943 0.15034284 0.75990957 1.2262019e-38
0.45134827 0.14998907 0.75991142 1.2262019e-38
0.46964616 0.15000345 0.75991255 1.2262019e-38
0.49014646 0.14989816 0.75991422 1.2262019e-38
0.5106982 0.15015715 0.75991565 1.2262019e-38
0.53096622 0.15041053 0.7599172 1.2262019e-38
0.55038875 0.14987545 0.75991869 1.2262019e-38
0.57026726 0.14987561 0.7599203 1.2262019e-38
0.58961564 0.15045114 0.75992179 1.2262019e-38
0.60897809 0.15002167 0.75992322 1.2262019e-38
0.62963754 0.14974169 0.75992489 1.2262019e-38
0.65014184 0.15010552 0.75992626 1.2262019e-38
0.67075175 0.14951862 0.75992793 1.2262019e-38
0.69068676 0.15020157 0.75992942 1.2262019e-38
0.70827562 0.14986502 0.75993073 1.2262019e-38
1.3350974 0.1492624 0.74764073 5.0707596e-39
0.41104579 0.16988225 0.7599082 1.1801041e-38
0.43001637 0.17000927 0.75990957 1.2262019e-38
0.45073804 0.17002329 0.75991118 1.2262019e-38
0.4696455 0.1699307 0.75991273 1.2262019e-38
0.49030346 0.16987461 0.75991428 1.2262019e-38
0.51079577 0.17024851 0.75991571 1.2262019e-38
0.53050745 0.17011005 0.75991708 1.2262019e-38
0.5506745 0.16971011 0.75991875 1.2262019e-38
0.57026726 0.16999207 0.75992018 1.2262019e-38
0.58961576 0.17043744 0.75992173 1.2262019e-38
0.60870647 0.17021322 0.75992322 1.2262019e-38
0.62977165 0.16979469 0.75992465 1.2262019e-38
0.65027386 0.17001912 0.7599262 1.2262019e-38
0.67062044 0.16992275 0.75992781 1.2262019e-38
0.69068635 0.16982952 0.75992942 1.2262019e-38
0.70843363 0.16985646 0.75993079 1.2262019e-38
1.3350974 0.16936161 0.74764073 5.0707596e-39
0.41048104 0.18992129 0.75990814 1.1708845e-38
0.42967623 0.18964912 0.75990951 1.2262019e-38
0.45094088 0.1900761 0.75991106 1.2262019e-38
0.46954471 0.19029029 0.75991267 1.2262019e-38
0.49030402 0.19018494 0.75991434 1.2262019e-38
0.51099199 0.18991131 0.75991571 1.2262019e-38
0.53112012 0.18979847 0.75991714 1.2262019e-38
0.55067438 0.1899585 0.75991863 1.2262019e-38
0.57026732 0.19010858 0.75992 1.2262019e-38
0.58961576 0.19042373 0.75992179 1.2262019e-38
0.60870659 0.19007105 0.75992328 1.2262019e-38
0.62963754 0.18983196 0.75992453 1.2262019e-38
0.65027422 0.18992348 0.75992638 1.2262019e-38
0.6704911 0.1903296 0.75992775 1.2262019e-38
0.69081491 0.18946384 0.75992942 1.2262019e-38
0.7085911 0.18984461 0.75993073 1.2262019e-38
1.3350974 0.18946081 0.74764073 5.0707596e-39
0.41076303 0.20992079 0.7599082 1.1708845e-38
0.42983937 0.21001701 0.75990957 1.2262019e-38
0.45114422 0.21012498 0.75991118 1.2262019e-38
0.46974576 0.21021917 0.75991255 1.2262019e-38
0.49046102 0.21050146 0.75991416 1.2262019e-38
0.51069808 0.20999686 0.75991565 1.2262019e-38
0.5308134 0.20984785 0.75991726 1.2262019e-38
0.5506745 0.21020679 0.75991869 1.2262019e-38
0.57026726 0.21022511 0.75992012 1.2262019e-38
0.58961588 0.21041004 0.75992173 1.2262019e-38
0.60870641 0.20992886 0.75992298 1.2262019e-38
0.62963766 0.20954894 0.75992465 1.2262019e-38
0.65027392 0.20982793 0.7599262 1.2262019e-38
0.6706211 0.21010207 0.75992781 1.2262019e-38
0.69068551 0.20972809 0.75992936 1.2262019e-38
0.70874792 0.20982954 0.75993067 1.2262019e-38
1.3350974 0.20956002 0.74764067 5.0707596e-39
0.41104582 0.22991475 0.7599082 1.1801041e-38
0.43000337 0.23038167 0.75990957 1.2262019e-38
0.45134819 0.23016979 0.75991106 1.2262019e-38
0.4699474 0.23014408 0.75991249 1.2262019e-38
0.49030495 0.23011608 0.7599141 1.2262019e-38
0.51040488 0.23008804 0.75991553 1.2262019e-38
0.53065991 0.22988501 0.75991732 1.2262019e-38
0.55057883 0.23003377 0.75991845 1.2262019e-38
0.57026678 0.23000634 0.75992012 1.2262019e-38
0.58961582 0.23039632 0.75992179 1.2262019e-38
0.60857064 0.23011293 0.75992304 1.2262019e-38
0.6296367 0.22992317 0.75992441 1.2262019e-38
0.6504063 0.22973694 0.75992608 1.2262019e-38
0.67062175 0.22986732 0.75992775 1.2262019e-38
0.69055796 0.22999498 0.75992954 1.2262019e-38
0.70827568 0.22981414 0.75993049 1.2262019e-38
1.3350974 0.2296592 0.74764067 5.0707596e-39
0.41048098 0.24996452 0.75990802 1.1708845e-38
0.42984107 0.25038368 0.75990963 1.2262019e-38
0.45073804 0.25021979 0.759911 1.2262019e-38
0.46934444 0.25007409 0.75991243 1.2262019e-38
0.49014643 0.24973372 0.75991422 1.2262019e-38
0.51069814 0.25017849 0.75991559 1.2262019e-38
0.53081334 0.24993348 0.75991714 1.2262019e-38
0.55067444 0.24986041 0.75991851 1.2262019e-38
0.57026714 0.24978754 0.75992 1.2262019e-38
0.58961588 0.25038263 0.75992173 1.2262019e-38
0.60870647 0.25030735 0.75992304 1.2262019e-38
0.62963766 0.25029737 0.75992471 1.2262019e-38
0.65053791 0.24996953 0.75992614 1.2262019e-38
0.67075175 0.24996017 0.75992763 1.2262019e-38
0.69068682 0.24995008 0.75992948 1.2262019e-38
0.70843339 0.24980114 0.75993037 1.2262019e-38
1.3350974 0.24975842 0.74764061 5.0707596e-39
0.41076297 0.26995865 0.75990802 1.1708845e-38
0.42966989 0.27003774 0.75990957 1.2262019e-38
0.45094076 0.2702674 0.75991106 1.2262019e-38
0.46954483 0.27000171 0.75991243 1.2262019e-38
0.49030349 0.26970506 0.75991416 1.2262019e-38
0.51060009 0.2702702 0.75991565 1.2262019e-38
0.53081298 0.26997575 0.7599172 1.2262019e-38
0.55067426 0.27010873 0.75991851 1.2262019e-38
0.57026732 0.26990402 0.75992012 1.2262019e-38
0.58961576 0.2703689 0.75992155 1.2262019e-38
0.60870641 0.27016515 0.75992304 1.2262019e-38
0.62963766 0.27001435 0.75992465 1.2262019e-38
0.6500091 0.27018544 0.75992614 1.2262019e-38
0.67088181 0.27005041 0.75992757 1.2262019e-38
0.69081503 0.26990259 0.75992924 1.2262019e-38
0.70859087 0.2697849 0.75993019 1.2262019e-38
1.3350976 0.26985765 0.74764055 5.0707596e-39
0.41104585 0.28994724 0.75990808 1.1801041e-38
0.43000326 0.29005274 0.75990933 1.2262019e-38
0.4514682 0.28986755 0.75991112 1.2262019e-38
0.46974587 0.2899254 0.75991249 1.2262019e-38
0.49030393 0.29001537 0.75991398 1.2262019e-38
0.51079577 0.28992921 0.75991553 1.2262019e-38
0.53081334 0.29001802 0.75991702 1.2262019e-38
0.55076945 0.28993291 0.75991857 1.2262019e-38
0.57026726 0.29002053 0.75992018 1.2262019e-38
0.58961576 0.29035521 0.75992149 1.2262019e-38
0.60870647 0.29002297 0.75992304 1.2262019e-38
0.62950391 0.29005808 0.75992441 1.2262019e-38
0.65027386 0.29009724 0.75992614 1.2262019e-38
0.67036033 0.29012859 0.75992775 1.2262019e-38
0.69094312 0.28985238 0.7599293 1.2262019e-38
0.70874804 0.28976545 0.75993037 1.2262019e-38
1.3350976 0.28995681 0.74764055 5.0707596e-39
0.41048113 0.31000772 0.75990808 1.1708845e-38
0.42984095 0.31005779 0.75990927 1.2262019e-38
0.45104286 0.30992222 0.75991112 1.2262019e-38
0.46994743 0.30984515 0.75991243 1.2262019e-38
0.49046093 0.31032681 0.75991392 1.2262019e-38
0.51099199 0.30958435 0.75991553 1.2262019e-38
0.53096634 0.31006137 0.75991702 1.2262019e-38
0.55067444 0.30976108 0.75991851 1.2262019e-38
0.57026726 0.310137 0.75992006 1.2262019e-38
0.58961582 0.31034148 0.75992149 1.2262019e-38
0.60870653 0.30988082 0.75992304 1.2262019e-38
0.62963772 0.31010649 0.75992459 1.2262019e-38
0.65014184 0.31000063 0.75992608 1.2262019e-38
0.67049116 0.31022236 0.75992781 1.2262019e-38
0.69042867 0.3097946 0.75992918 1.2262019e-38
0.70827562 0.30976334 0.75993037 1.2262019e-38
1.3350976 0.31005609 0.74764055 5.0707596e-39
0.41076306 0.32999653 0.75990814 1.1708845e-38
0.42967618 0.33006614 0.75990921 1.2262019e-38
0.45073807 0.33041635 0.75991106 1.2262019e-38
0.46964571 0.33021274 0.75991243 1.2262019e-38
0.49061897 0.33029091 0.75991386 1.2262019e-38
0.51069826 0.32968143 0.75991553 1.2262019e-38
0.5308134 0.33010155 0.75991714 1.2262019e-38
0.5506745 0.33000943 0.75991839 1.2262019e-38
0.57026732 0.33025354 0.75992006 1.2262019e-38
0.589616 0.33032778 0.75992149 1.2262019e-38
0.60870683 0.33006957 0.7599231 1.2262019e-38
0.62963754 0.32982343 0.75992447 1.2262019e-38
0.65027374 0.32990703 0.75992602 1.2262019e-38
0.67062151 0.32998943 0.75992757 1.2262019e-38
0.69055784 0.32974797 0.75992888 1.2262019e-38
0.70843351 0.32974598 0.75993043 1.2262019e-38
1.3350976 0.33015531 0.74764055 5.0707596e-39
0.41104591 0.34997967 0.75990808 1.1801041e-38
0.43000865 0.35007471 0.75990945 1.2262019e-38
0.45104226 0.35001859 0.75991112 1.2262019e-38
0.46922544 0.35015815 0.75991225 1.2262019e-38
0.48998997 0.35025665 0.75991386 1.2262019e-38
0.51069826 0.35019875 0.75991541 1.2262019e-38
0.53112012 0.35014191 0.75991714 1.2262019e-38
0.55096054 0.34982324 0.75991845 1.2262019e-38
0.57041627 0.35003388 0.75992018 1.2262019e-38
0.58961576 0.35031405 0.75992131 1.2262019e-38
0.60870647 0.35025838 0.75992292 1.2262019e-38
0.62963802 0.34986898 0.75992441 1.2262019e-38
0.65027404 0.34981138 0.75992608 1.2262019e-38
0.67062169 0.3497546 0.75992769 1.2262019e-38
0.69081134 0.35001963 0.75992918 1.2262019e-38
0.70881486 0.35011452 0.75993055 1.2262019e-38
1.3350978 0.35025454 0.74764055 5.0707596e-39
0.41048101 0.370051 0.75990802 1.1708845e-38
0.43016759 0.37007892 0.75990945 1.2262019e-38
0.45134827 0.36961472 0.759911 1.2262019e-38
0.46974581 0.36963156 0.75991243 1.2262019e-38
0.49014643 0.37022501 0.7599138 1.2262019e-38
0.51040506 0.37030345 0.75991547 1.2262019e-38
0.5308134 0.37018412 0.75991696 1.2262019e-38
0.55067438 0.36966065 0.75991839 1.2262019e-38
0.57026738 0.36981499 0.75992 1.2262019e-38
0.58961594 0.37030032 0.75992149 1.2262019e-38
0.60870659 0.37011626 0.75992286 1.2262019e-38
0.6296376 0.36991462 0.75992417 1.2262019e-38
0.65040606 0.37004039 0.75992596 1.2262019e-38
0.67075175 0.36984217 0.75992751 1.2262019e-38
0.69094306 0.37028748 0.75992912 1.2262019e-38
0.70851201 0.37011218 0.75993037 1.2262019e-38
1.3350978 0.3703537 0.74764031 5.0707596e-39
0.41106313 0.38941085 0.75990784 1.1708845e-38
0.42933223 0.39009863 0.75990945 1.2262019e-38
0.45104292 0.39011088 0.759911 1.2262019e-38
0.4699474 0.38954616 0.75991231 1.2262019e-38
0.49030358 0.39019012 0.75991392 1.2262019e-38
0.51060021 0.38995856 0.75991547 1.2262019e-38
0.53050756 0.39023229 0.75991696 1.2262019e-38
0.55067456 0.38990894 0.75991845 1.2262019e-38
0.57026732 0.3899315 0.75992006 1.2262019e-38
0.58961588 0.39028668 0.75992137 1.2262019e-38
0.60870659 0.38997409 0.7599228 1.2262019e-38
0.62977189 0.38995755 0.75992417 1.2262019e-38
0.65053785 0.39026669 0.75992608 1.2262019e-38
0.67088157 0.38992697 0.75992763 1.2262019e-38
0.6906864 0.38991717 0.75992894 1.2262019e-38
0.70827585 0.38971257 0.75993025 1.2262019e-38
1.3350978 0.39045292 0.74764025 5.0707596e-39
0.41076326 0.40945652 0.75990772 1.1708845e-38
0.43000865 0.40974563 0.75990927 1.2262019e-38
0.4506177 0.41018447 0.759911 1.2262019e-38
0.46964547 0.40992156 0.75991225 1.2262019e-38
0.49079308 0.40979952 0.75991398 1.2262019e-38
0.51079571 0.40960982 0.75991541 1.2262019e-38
0.53066003 0.40993494 0.75991684 1.2262019e-38
0.5506745 0.41015723 0.75991839 1.2262019e-38
0.57026732 0.41004798 0.75991988 1.2262019e-38
0.58961594 0.41027296 0.75992131 1.2262019e-38
0.60884279 0.41015923 0.75992262 1.2262019e-38
0.62990552 0.41032633 0.75992447 1.2262019e-38
0.65027392 0.41017452 0.7599259 1.2262019e-38
0.67036033 0.41002673 0.75992739 1.2262019e-38
0.69031274 0.409877 0.759929 1.2262019e-38
0.70851266 0.41008502 0.75993049 1.2262019e-38
1.3350978 0.41055214 0.74764025 5.0707596e-39
0.41048095 0.43009424 0.75990772 1.1708845e-38
0.43016762 0.42974681 0.75990933 1.2262019e-38
0.45114434 0.42976505 0.759911 1.2262019e-38
0.46934444 0.43030283 0.75991213 1.2262019e-38
0.49030411 0.42977506 0.75991386 1.2262019e-38
0.51099211 0.42925736 0.75991541 1.2262019e-38
0.53081346 0.42997429 0.75991702 1.2262019e-38
0.55067462 0.43040562 0.75991845 1.2262019e-38
0.57056612 0.42981935 0.75991976 1.2262019e-38
0.58961588 0.43025923 0.75992137 1.2262019e-38
0.60870659 0.43035072 0.75992268 1.2262019e-38
0.6296376 0.43037719 0.75992417 1.2262019e-38
0.65027386 0.42975265 0.7599259 1.2262019e-38
0.67049128 0.43011504 0.75992733 1.2262019e-38
0.69068676 0.43014091 0.759929 1.2262019e-38
0.70874804 0.43045276 0.75993043 1.2262019e-38
1.3350978 0.43065137 0.74764025 5.0707596e-39
0.4110631 0.44944295 0.75990784 1.1708845e-38
0.42951354 0.45012677 0.75990927 1.2262019e-38
0.45134842 0.44979548 0.75991082 1.2262019e-38
0.46954483 0.45021877 0.75991225 1.2262019e-38
0.48999003 0.45009744 0.75991398 1.2262019e-38
0.51069826 0.44936594 0.75991535 1.2262019e-38
0.53081298 0.45001668 0.75991708 1.2262019e-38
0.55067462 0.45065394 0.75991845 1.2262019e-38
0.57026738 0.44960853 0.75992 1.2262019e-38
0.58961582 0.45024559 0.75992149 1.2262019e-38
0.60870653 0.45020857 0.7599228 1.2262019e-38
0.62963778 0.45009416 0.75992423 1.2262019e-38
0.65000927 0.44966778 0.75992584 1.2262019e-38
0.67062187 0.4502008 0.75992751 1.2262019e-38
0.69081515 0.45008537 0.75992894 1.2262019e-38
0.70851207 0.45005473 0.75993019 1.2262019e-38
1.3350978 0.45075053 0.74764025 5.0707596e-39
0.41076329 0.4694944 0.75990784 1.1708845e-38
0.42966995 0.47013253 0.75990921 1.2262019e-38
0.45104292 0.47029945 0.75991082 1.2262019e-38
0.47006586 0.46967128 0.75991225 1.2262019e-38
0.49014661 0.47006062 0.7599138 1.2262019e-38
0.5106982 0.46988329 0.75991511 1.2262019e-38
0.53096652 0.46971226 0.75991678 1.2262019e-38
0.55038893 0.47050458 0.75991839 1.2262019e-38
0.57026738 0.46972495 0.7599197 1.2262019e-38
0.58961606 0.4702318 0.75992125 1.2262019e-38
0.60897821 0.47038457 0.75992262 1.2262019e-38
0.62963772 0.46981117 0.75992423 1.2262019e-38
0.65014195 0.4698959 0.7599259 1.2262019e-38
0.67075199 0.47028378 0.75992745 1.2262019e-38
0.69094318 0.47002718 0.759929 1.2262019e-38
0.70827574 0.46966174 0.75993019 1.2262019e-38
1.3350978 0.47084978 0.74764025 5.0707596e-39
0.41076326 0.49068418 0.75990778 1.1708845e-38
0.43034849 0.48975769 0.75990915 1.2262019e-38
0.45061752 0.49038419 0.75991082 1.2262019e-38
0.46964562 0.48963037 0.75991219 1.2262019e-38
0.49030381 0.49002075 0.75991374 1.2262019e-38
0.5106982 0.49040058 0.75991511 1.2262019e-38
0.53112018 0.48940486 0.75991684 1.2262019e-38
0.5506745 0.49030885 0.75991827 1.2262019e-38
0.57026744 0.48984149 0.75991958 1.2262019e-38
0.589616 0.49021813 0.75992131 1.2262019e-38
0.60870665 0.49058425 0.75992256 1.2262019e-38
0.62963796 0.48952821 0.75992435 1.2262019e-38
0.65027428 0.49012116 0.75992578 1.2262019e-38
0.67088187 0.49036404 0.75992727 1.2262019e-38
0.69068635 0.48966566 0.75992882 1.2262019e-38
0.7085126 0.4900277 0.75993019 1.2262019e-38
1.3350978 0.49094898 0.74764025 5.0707596e-39
0.41076326 0.51010823 0.75990766 1.1708845e-38
0.42984015 0.51013958 0.75990909 1.2262019e-38
0.4514682 0.50948483 0.75991094 1.2262019e-38
0.46964559 0.51042402 0.75991219 1.2262019e-38
0.49079299 0.50961411 0.75991392 1.2262019e-38
0.510405 0.51051879 0.75991517 1.2262019e-38
0.53081352 0.5094611 0.75991684 1.2262019e-38
0.55057889 0.51014471 0.75991821 1.2262019e-38
0.57026732 0.50995797 0.75991976 1.2262019e-38
0.58961606 0.51020449 0.75992125 1.2262019e-38
0.60870659 0.51044208 0.75992268 1.2262019e-38
0.62936938 0.50959015 0.75992423 1.2262019e-38
0.65040636 0.51034379 0.75992584 1.2262019e-38
0.67062134 0.51014179 0.75992715 1.2262019e-38
0.69031245 0.50963867 0.759929 1.2262019e-38
0.7087481 0.51038867 0.75993013 1.2262019e-38
1.3350978 0.5110482 0.74764019 5.0707596e-39
0.41076329 0.52953225 0.7599076 1.1708845e-38
0.42933226 0.53053123 0.75990921 1.2262019e-38
0.45104289 0.52956933 0.75991082 1.2262019e-38
0.46922532 0.53039384 0.75991207 1.2262019e-38
0.49030426 0.52960557 0.75991356 1.2262019e-38
0.51060021 0.53016508 0.75991505 1.2262019e-38
0.53081352 0.52984309 0.75991672 1.2262019e-38
0.55067456 0.52996248 0.75991821 1.2262019e-38
0.57026738 0.53007448 0.75991976 1.2262019e-38
0.589616 0.53019077 0.75992113 1.2262019e-38
0.60870659 0.5302999 0.75992239 1.2262019e-38
0.62963796 0.52962124 0.75992447 1.2262019e-38
0.65053779 0.53056371 0.75992572 1.2262019e-38
0.67062163 0.52958292 0.75992739 1.2262019e-38
0.69081151 0.53020263 0.75992882 1.2262019e-38
0.70851213 0.52999735 0.75993007 1.2262019e-38
1.3350978 0.53114742 0.74764007 5.0707596e-39
0.41076341 0.55072212 0.75990766 1.1708845e-38
0.43036684 0.54977196 0.75990921 1.2262019e-38
0.45104304 0.55048817 0.75991076 1.2262019e-38
0.47006586 0.54936928 0.75991213 1.2262019e-38
0.49030411 0.55026019 0.75991362 1.2262019e-38
0.51079583 0.54980737 0.75991523 1.2262019e-38
0.53081352 0.55022508 0.75991672 1.2262019e-38
0.55076951 0.54977834 0.75991815 1.2262019e-38
0.57026732 0.55019099 0.75991988 1.2262019e-38
0.58961588 0.55017704 0.75992113 1.2262019e-38
0.60870677 0.55015779 0.75992256 1.2262019e-38
0.62950391 0.54967672 0.75992411 1.2262019e-38
0.65027392 0.55048436 0.75992578 1.2262019e-38
0.67036051 0.5493679 0.75992727 1.2262019e-38
0.69094294 0.55046242 0.75992888 1.2262019e-38
0.70827585 0.54961103 0.75993013 1.2262019e-38
1.3350977 0.54999042 0.74764007 5.0707596e-39
0.41076335 0.57014602 0.75990778 1.1708845e-38
0.42984003 0.56981379 0.75990897 1.2262019e-38
0.4506177 0.57058376 0.75991058 1.2262019e-38
0.46964571 0.56933922 0.75991195 1.2262019e-38
0.48999012 0.57059491 0.75991338 1.2262019e-38
0.51099223 0.56944567 0.75991523 1.2262019e-38
0.53081346 0.57060707 0.7599166 1.2262019e-38
0.55096072 0.56915939 0.75991803 1.2262019e-38
0.57026738 0.57030755 0.75991976 1.2262019e-38
0.58961582 0.57016337 0.75992125 1.2262019e-38
0.60870653 0.57001549 0.75992268 1.2262019e-38
0.62963808 0.57004178 0.75992417 1.2262019e-38
0.65027398 0.57006252 0.75992584 1.2262019e-38
0.67049569 0.56977355 0.75992733 1.2262019e-38
0.69068629 0.57010812 0.75992864 1.2262019e-38
0.70851254 0.56997019 0.75993001 1.2262019e-38
1.3350978 0.56883341 0.74764007 5.0707596e-39
0.41076347 0.58957011 0.7599076 1.1708845e-38
0.42951354 0.59055114 0.75990903 1.2262019e-38
0.45146835 0.58966237 0.75991064 1.2262019e-38
0.46964574 0.59013277 0.75991207 1.2262019e-38
0.4901405 0.59020811 0.75991338 1.2262019e-38
0.51069838 0.58956784 0.75991517 1.2262019e-38
0.53050756 0.59067547 0.75991666 1.2262019e-38
0.5506745 0.58901763 0.75991815 1.2262019e-38
0.57026738 0.59042388 0.75991946 1.2262019e-38
0.58961594 0.59014958 0.7599209 1.2262019e-38
0.60870665 0.58987337 0.75992268 1.2262019e-38
0.62977201 0.59040439 0.75992405 1.2262019e-38
0.65027392 0.58964056 0.75992578 1.2262019e-38
0.6710003 0.59046745 0.75992739 1.2262019e-38
0.69068652 0.5894143 0.75992858 1.2262019e-38
0.7087481 0.5903247 0.75993013 1.2262019e-38
1.3350978 0.58893269 0.74764007 5.0707596e-39
0.41076338 0.61075997 0.75990772 1.1708845e-38
0.43020445 0.60980046 0.75990903 1.2262019e-38
0.45104304 0.60975814 0.75991052 1.2262019e-38
0.46934456 0.61053163 0.75991189 1.2262019e-38
0.49079299 0.60942876 0.75991374 1.2262019e-38
0.51069838 0.61008507 0.75991511 1.2262019e-38
0.53066009 0.61036813 0.75991678 1.2262019e-38
0.55067462 0.60926598 0.75991803 1.2262019e-38
0.57026744 0.61054051 0.7599197 1.2262019e-38
0.589616 0.61013591 0.7599209 1.2262019e-38
0.60870671 0.60973114 0.75992256 1.2262019e-38
0.62990552 0.61076397 0.75992417 1.2262019e-38
0.65027386 0.60921872 0.75992566 1.2262019e-38
0.67062169 0.61058789 0.75992697 1.2262019e-38
0.69032437 0.60972089 0.75992858 1.2262019e-38
0.70851213 0.60993981 0.75993007 1.2262019e-38
1.3350978 0.60903186 0.74764007 5.0707596e-39
0.41076335 0.63018394 0.75990778 1.1708845e-38
0.42984006 0.62948781 0.75990903 1.2262019e-38
0.45104298 0.63067687 0.75991058 1.2262019e-38
0.46997562 0.62951195 0.75991201 1.2262019e-38
0.49030411 0.62943614 0.75991356 1.2262019e-38
0.51069838 0.6306026 0.75991511 1.2262019e-38
0.53097141 0.62970239 0.75991666 1.2262019e-38
0.55067462 0.62951434 0.75991803 1.2262019e-38
0.57026744 0.63065696 0.75991952 1.2262019e-38
0.58961588 0.63012224 0.7599209 1.2262019e-38
0.60870671 0.62958908 0.75992268 1.2262019e-38
0.62963784 0.63083309 0.75992393 1.2262019e-38
0.64988959 0.62948883 0.75992584 1.2262019e-38
0.67062151 0.63002914 0.75992715 1.2262019e-38
0.69105983 0.63056451 0.75992852 1.2262019e-38
0.70827574 0.62956005 0.75993013 1.2262019e-38
1.3350978 0.62913108 0.74764007 5.0707596e-39
0.41076341 0.64960802 0.75990766 1.1708845e-38
0.42984018 0.65054947 0.75990891 1.2262019e-38
0.45070854 0.65033495 0.7599107 1.2262019e-38
0.46964574 0.64904809 0.75991207 1.2262019e-38
0.49030426 0.65009058 0.75991333 1.2262019e-38
0.51069838 0.65111989 0.75991505 1.2262019e-38
0.53112024 0.64904761 0.75991648 1.2262019e-38
0.55067462 0.64976263 0.75991815 1.2262019e-38
0.57026744 0.65077347 0.7599194 1.2262019e-38
0.589616 0.65010846 0.7599209 1.2262019e-38
0.60870671 0.64944685 0.75992239 1.2262019e-38
0.62963778 0.65055025 0.75992399 1.2262019e-38
0.65027434 0.6500091 0.75992566 1.2262019e-38
0.67062163 0.64947027 0.75992715 1.2262019e-38
0.6906864 0.65055048 0.75992858 1.2262019e-38
0.70873117 0.65027916 0.7599299 1.2262019e-38
1.3350978 0.6492303 0.74763983 5.0707596e-39
0.41076347 0.67079782 0.75990754 1.1708845e-38
0.42984021 0.66985571 0.75990885 1.2262019e-38
0.45134851 0.66942114 0.75991058 1.2262019e-38
0.46964565 0.66984159 0.75991201 1.2262019e-38
0.49030417 0.67074525 0.7599135 1.2262019e-38
0.51037663 0.67040282 0.75991505 1.2262019e-38
0.53081352 0.66912001 0.75991654 1.2262019e-38
0.55067462 0.6700111 0.75991803 1.2262019e-38
0.57026738 0.67088997 0.7599194 1.2262019e-38
0.589616 0.67009479 0.75992084 1.2262019e-38
0.60870659 0.66930479 0.75992215 1.2262019e-38
0.62963778 0.67026716 0.75992405 1.2262019e-38
0.65065795 0.67052144 0.7599256 1.2262019e-38
0.67036039 0.66926605 0.75992703 1.2262019e-38
0.69068652 0.66985661 0.7599287 1.2262019e-38
0.70851225 0.67069626 0.7599299 1.2262019e-38
1.3350979 0.66932952 0.74763978 5.0707596e-39
0.41076347 0.69022185 0.7599076 1.1708845e-38
0.42984024 0.68916208 0.75990897 1.2262019e-38
0.45104322 0.68994683 0.75991058 1.2262019e-38
0.46964562 0.69063526 0.75991184 1.2262019e-38
0.4897972 0.69042617 0.75991327 1.2262019e-38
0.51099223 0.68911874 0.75991505 1.2262019e-38
0.53081352 0.68950206 0.75991648 1.2262019e-38
0.55067468 0.6902594 0.75991803 1.2262019e-38
0.57026744 0.69100648 0.75991946 1.2262019e-38
0.58961612 0.69008118 0.75992107 1.2262019e-38
0.60870665 0.68916255 0.75992215 1.2262019e-38
0.62963772 0.68998414 0.75992388 1.2262019e-38
0.65027398 0.69079411 0.75992548 1.2262019e-38
0.67085952 0.69026899 0.75992715 1.2262019e-38
0.69068652 0.68916279 0.7599287 1.2262019e-38
0.70851225 0.68988252 0.7599299 1.2262019e-38
1.335098 0.68942869 0.74763978 5.0707596e-39
0.41076347 0.70964587 0.75990748 1.1708845e-38
0.42984015 0.7102235 0.75990897 1.2262019e-38
0.45104328 0.71086556 0.7599104 1.2262019e-38
0.4693152 0.71018207 0.75991189 1.2262019e-38
0.4907932 0.70924336 0.75991344 1.2262019e-38
0.51069838 0.70925236 0.75991488 1.2262019e-38
0.53081352 0.70988399 0.75991654 1.2262019e-38
0.55067462 0.71050781 0.75991797 1.2262019e-38
0.57026732 0.71112293 0.75991946 1.2262019e-38
0.58961612 0.71006745 0.7599209 1.2262019e-38
0.60870671 0.70902044 0.75992221 1.2262019e-38
0.6296379 0.70970112 0.75992393 1.2262019e-38
0.65027398 0.71037233 0.75992548 1.2262019e-38
0.67062145 0.71103406 0.75992692 1.2262019e-38
0.69068646 0.71007788 0.75992846 1.2262019e-38
0.70851225 0.70906878 0.7599299 1.2262019e-38
1.335098 0.70952791 0.74763978 5.0707596e-39
0.41076338 0.73083568 0.75990731 1.1708845e-38
0.42931291 0.730299 0.75990891 1.2262019e-38
0.45104313 0.73004115 0.75991046 1.2262019e-38
0.46994743 0.72914183 0.75991172 1.2262019e-38
0.49030438 0.72926658 0.75991321 1.2262019e-38
0.51069838 0.72976965 0.75991482 1.2262019e-38
0.53081363 0.73026597 0.75991637 1.2262019e-38
0.55067462 0.7307561 0.75991797 1.2262019e-38
0.57026738 0.73123944 0.7599194 1.2262019e-38
0.58961618 0.73005372 0.75992101 1.2262019e-38
0.60870665 0.7288782 0.75992233 1.2262019e-38
0.62963802 0.7294181 0.75992382 1.2262019e-38
0.65027398 0.72995049 0.75992566 1.2262019e-38
0.67062163 0.73047531 0.75992697 1.2262019e-38
0.69068652 0.73099285 0.75992864 1.2262019e-38
0.70851201 0.72985381 0.75992978 1.2262019e-38
1.335098 0.72962725 0.74763978 5.0707596e-39
0.41076341 0.7502597 0.75990736 1.1708845e-38
0.43034869 0.74947357 0.75990885 1.2262019e-38
0.45104304 0.74921656 0.75991035 1.2262019e-38
0.46964574 0.7495504 0.75991184 1.2262019e-38
0.49030435 0.74992114 0.75991356 1.2262019e-38
0.51069838 0.75028712 0.75991488 1.2262019e-38
0.53081352 0.75064796 0.75991642 1.2262019e-38
0.55067462 0.75100446 0.75991797 1.2262019e-38
0.5702675 0.75135601 0.75991946 1.2262019e-38
0.5896163 0.75003999 0.7599209 1.2262019e-38
0.60870659 0.74873608 0.75992221 1.2262019e-38
0.62963796 0.74913508 0.75992388 1.2262019e-38
0.65027404 0.74952853 0.7599256 1.2262019e-38
0.67062151 0.74991643 0.7599268 1.2262019e-38
0.69068652 0.75029916 0.75992846 1.2262019e-38
0.70851225 0.7506389 0.75992972 1.2262019e-38
1.335098 0.74972636 0.74763978 5.0707596e-39
0.41076341 0.76968372 0.75990731 1.1708845e-38
0.42984024 0.76989764 0.75990868 1.2262019e-38
0.45104298 0.77013546 0.75991035 1.2262019e-38
0.46964574 0.77034408 0.75991184 1.2262019e-38
0.49030432 0.77057576 0.7599135 1.2262019e-38
0.51069844 0.77080446 0.75991505 1.2262019e-38
0.53081363 0.77103013 0.75991637 1.2262019e-38
0.55067462 0.77125281 0.75991791 1.2262019e-38
0.5702675 0.77147239 0.75991929 1.2262019e-38
0.58961618 0.77002627 0.75992078 1.2262019e-38
0.60870659 0.76859397 0.75992239 1.2262019e-38
0.62963796 0.76885223 0.7599237 1.2262019e-38
0.65027404 0.76910663 0.75992548 1.2262019e-38
0.67062163 0.76935774 0.75992703 1.2262019e-38
0.69068652 0.7696051 0.75992841 1.2262019e-38
0.70851231 0.76982522 0.75992984 1.2262019e-38
1.3350981 0.7698257 0.74763978 5.0707596e-39
0.41076347 0.79087365 0.75990742 1.1708845e-38
0.4298403 0.79095912 0.75990874 1.2262019e-38
0.45104298 0.79105425 0.75991035 1.2262019e-38
0.46964574 0.79113764 0.75991178 1.2262019e-38
0.49030426 0.79123032 0.75991344 1.2262019e-38
0.51069844 0.79132175 0.75991505 1.2262019e-38
0.53081363 0.791412 0.75991625 1.2262019e-38
0.55067456 0.79150105 0.7599178 1.2262019e-38
0.57026744 0.79158908 0.75991917 1.2262019e-38
0.58961624 0.7900126 0.75992078 1.2262019e-38
0.60870671 0.78845173 0.75992215 1.2262019e-38
0.62963796 0.78856909 0.75992393 1.2262019e-38
0.65027404 0.78868479 0.75992525 1.2262019e-38
0.67062163 0.78879887 0.75992697 1.2262019e-38
0.69068646 0.78891128 0.75992846 1.2262019e-38
0.70851231 0.78901142 0.75992996 1.2262019e-38
1.3350981 0.7899248 0.74763972 5.0707596e-39
0.41076356 0.81029761 0.75990742 1.1708845e-38
0.42984024 0.81026548 0.75990874 1.2262019e-38
0.45104307 0.81022966 0.75991029 1.2262019e-38
0.46964574 0.81019849 0.75991178 1.2262019e-38
0.49030435 0.81016368 0.75991321 1.2262019e-38
0.51069844 0.81012934 0.75991476 1.2262019e-38
0.53081357 0.81009561 0.75991625 1.2262019e-38
0.55067456 0.81006205 0.75991786 1.2262019e-38
0.57026744 0.81002909 0.75991929 1.2262019e-38
0.59032792 0.80999541 0.7599209 1.2262019e-38
0.60870665 0.80996436 0.75992209 1.2262019e-38
0.62963802 0.80992919 0.75992388 1.2262019e-38
0.6502741 0.80989438 0.75992537 1.2262019e-38
0.67062163 0.80986029 0.7599268 1.2262019e-38
0.69068646 0.80982643 0.75992841 1.2262019e-38
0.70851237 0.80979639 0.75992972 1.2262019e-38
1.3350981 0.81002402 0.74763972 5.0707596e-39
0.41076359 0.82972163 0.75990742 1.1708845e-38
0.42984024 0.82957184 0.7599088 1.2262019e-38
0.45104313 0.82940531 0.75991035 1.2262019e-38
0.46964577 0.82925922 0.7599116 1.2262019e-38
0.4903042 0.82909709 0.75991321 1.2262019e-38
0.5106985 0.82893699 0.75991505 1.2262019e-38
0.53081357 0.82877904 0.75991631 1.2262019e-38
0.55067462 0.82862306 0.7599178 1.2262019e-38
0.5702675 0.82846928 0.75991911 1.2262019e-38
0.58961624 0.82998043 0.75992078 1.2262019e-38
0.60870677 0.83147705 0.75992227 1.2262019e-38
0.62963802 0.83128929 0.75992364 1.2262019e-38
0.65027404 0.83110416 0.75992554 1.2262019e-38
0.67062151 0.83092129 0.75992692 1.2262019e-38
0.69068646 0.83074152 0.75992852 1.2262019e-38
0.70851237 0.83058143 0.75992984 1.2262019e-38
1.3350981 0.83012331 0.74763972 5.0707596e-39
0.41076356 0.8509115 0.75990736 1.1708845e-38
0.42984024 0.85063332 0.7599088 1.2262019e-38
0.4510431 0.85032409 0.75991029 1.2262019e-38
0.46964577 0.85005277 0.75991178 1.2262019e-38
0.49030444 0.84975159 0.75991291 1.2262019e-38
0.5106985 0.84945434 0.75991482 1.2262019e-38
0.53081352 0.84916109 0.75991625 1.2262019e-38
0.55067462 0.84887147 0.7599178 1.2262019e-38
0.57026756 0.84858572 0.75991923 1.2262019e-38
0.58961612 0.84996676 0.7599209 1.2262019e-38
0.60870677 0.85133493 0.75992221 1.2262019e-38
0.62963796 0.85100633 0.75992376 1.2262019e-38
0.65027416 0.8506822 0.75992525 1.2262019e-38
0.67062163 0.85036266 0.75992697 1.2262019e-38
0.6906864 0.85004753 0.75992829 1.2262019e-38
0.70851231 0.84976768 0.75992972 1.2262019e-38
1.3350981 0.85022253 0.74763972 5.0707596e-39
0.41076356 0.87033534 0.75990731 1.1708845e-38
0.42984024 0.86993957 0.75990874 1.2262019e-38
0.45146844 0.87044013 0.75991023 1.2262019e-38
0.46964583 0.87084657 0.75991172 1.2262019e-38
0.49030432 0.87040633 0.75991327 1.2262019e-38
0.5106985 0.86997169 0.75991488 1.2262019e-38
0.53081357 0.8695429 0.75991613 1.2262019e-38
0.55067462 0.86911964 0.7599178 1.2262019e-38
0.57026756 0.86870229 0.75991929 1.2262019e-38
0.58961612 0.8699531 0.75992066 1.2262019e-38
0.60870677 0.87119281 0.75992221 1.2262019e-38
0.62963784 0.87072319 0.75992382 1.2262019e-38
0.6502741 0.87026036 0.75992548 1.2262019e-38
0.67062163 0.86980402 0.75992674 1.2262019e-38
0.69068646 0.86935389 0.75992817 1.2262019e-38
0.70874816 0.86939538 0.7599296 1.2262019e-38
1.3350981 0.87032169 0.74763972 5.0707596e-39
0.41076356 0.88975948 0.75990725 1.1616649e-38
0.42984021 0.88924599 0.75990874 1.2262019e-38
0.45061779 0.88947791 0.75991005 1.2262019e-38
0.4696458 0.88990724 0.75991154 1.2262019e-38
0.49030435 0.89106089 0.75991309 1.1708845e-38
0.51069844 0.89048904 0.75991482 1.1893236e-38
0.53081363 0.88992488 0.75991642 1.2262019e-38
0.55067462 0.8893683 0.75991774 1.2262019e-38
0.57026756 0.88881886 0.75991923 1.2262019e-38
0.58961612 0.88993937 0.7599206 1.1893236e-38
0.60870689 0.89105052 0.75992203 1.1893236e-38
0.62963778 0.89044017 0.7599237 1.2077628e-38
0.65027416 0.88983846 0.75992525 1.2262019e-38
0.67062181 0.88924503 0.75992686 1.2262019e-38
0.69104922 0.8896718 0.75992846 1.1893236e-38
0.7082938 0.89010018 0.7599296 1.1985432e-38
1.3350981 0.89042091 0.74763972 5.0707596e-39
1.3350981 0.91052014 0.7476396 5.0707596e-39
1.3350981 0.93061936 0.74763954 5.0707596e-39
1.3350981 0.95071858 0.74763954 5.0707596e-39
1.3350981 0.9708178 0.74763948 5.0707596e-39
1.3350981 0.99091709 0.7476393 5.0707596e-39
1.3350981 1.0110162 0.7476393 5.0707596e-39
1.3350981 1.0311155 0.7476393 5.0707596e-39
1.3350983 1.0499586 0.7476393 5.0707596e-39
1.3350983 1.0688015 0.7476393 5.0707596e-39
1.3350981 1.0889008 0.74763924 5.0707596e-39
1.3350983 1.109 0.74763912 5.0707596e-39
1.3350983 1.1290992 0.74763912 5.0707596e-39
1.3350983 1.1491984 0.74763912 5.0707596e-39
1.3350983 1.1692977 0.74763912 5.0707596e-39
1.3350983 1.189397 0.74763912 5.0707596e-39
1.3350983 1.2094963 0.747639 5.0707596e-39
1.3350983 1.2295954 0.74763882 5.0707596e-39
1.3350983 1.2496946 0.74763882 5.0707596e-39
1.3350983 1.2697939 0.74763882 5.0707596e-39
1.3325142 1.2912422 0.74750239 5.0707596e-39
1.3313762 1.3095015 0.74749452 5.0707596e-39
1.3315818 1.3295981 0.74757499 5.0707596e-39
1.3317876 1.3496948 0.74765551 5.0707596e-39
1.3319932 1.3697913 0.74773586 5.0707596e-39
1.3321987 1.3898879 0.74781621 5.0707596e-39
1.3324045 1.4099844 0.74789643 5.0707596e-39
1.3326101 1.4300809 0.74797678 5.0707596e-39
1.3328158 1.4501774 0.74805701 5.0707596e-39
1.3323946 1.4703763 0.7456798 4.7019771e-39
1.3326011 1.4900932 0.7455501 4.7019771e-39
1.3328761 1.5102211 0.74565738 4.7019771e-39
1.3331509 1.5303494 0.74576473 4.7019771e-39
1.3334256 1.5504774 0.74587232 4.7019771e-39
1.33364 1.5701938 0.74590766 4.7019771e-39
1.3339754 1.5898961 0.74608707 4.7019771e-39
1.3340807 1.60923 0.74590576 4.6097815e-39
1.3342386 1.6306942 0.74563384 4.5175859e-39
1.334651 1.6508367 0.74579507 4.5175859e-39
1.3350509 1.6703717 0.74623722 4.5175859e-39
1.3354499 1.6898596 0.74610722 4.5175859e-39
1.3358622 1.7100023 0.74626851 4.5175859e-39
1.3362746 1.7301446 0.74642968 4.5175859e-39
1.3366867 1.7502873 0.74659085 4.5175859e-39
1.3370992 1.7704297 0.74675214 4.5175859e-39
0.89633512 1.7975913 0.74927276 0
0.90741855 1.7928408 0.74831808 0
0.93031216 1.7908156 0.75098121 0
0.95063353 1.7903895 0.75228053 0
0.97052997 1.7900023 0.7498402 0
0.99059922 1.7895989 0.74899334 0
1.009625 1.7892115 0.74877286 0
1.0298619 1.7887919 0.74944663 0
1.0488613 1.7883909 0.751001 0
1.0693233 1.7879745 0.75072557 0
1.0893985 1.7875686 0.75016844 0
1.1097596 1.7871596 0.74924409 0
1.1295196 1.7867484 0.75013041 0
1.150172 1.7863251 0.75015742 0
1.1701736 1.7859153 0.75017351 0
1.1910417 1.7855986 0.74985886 0
1.3374985 1.78994 0.74662244 4.5175859e-39
0.87988269 1.8199757 0.75774103 2.1204995e-39
0.88572788 1.8094461 0.75028801 8.2976067e-40
1.337898 1.8094589 0.74706417 4.5175859e-39
0.87856847 1.830438 0.74913621 3.5034339e-39
1.3383104 1.8296015 0.74722522 4.5175859e-39
0.87883931 1.8500625 0.74967462 3.8722165e-39
1.3387226 1.849744 0.7473861 4.5175859e-39
0.87925339 1.8702829 0.74952894 3.8722165e-39
1.3391347 1.8698865 0.74754703 4.5175859e-39
0.87965679 1.8899806 0.74968678 3.8722165e-39
1.3395472 1.890029 0.74770808 4.5175859e-39
0.87992692 1.9031775 0.74906141 3.8722165e-39
0.88010323 1.9118034 0.75116265 4.5175859e-39
1.3398685 1.9057401 0.74830985 4.6097815e-39
1.3400762 1.9158691 0.74730217 4.4253902e-39
1.3403581 1.929665 0.74831063 4.5175859e-39
0.88089728 1.9505876 0.75017214 3.7800208e-39
1.3407581 1.9491949 0.74818075 4.5175859e-39
0.88130069 1.9702849 0.75033027 3.8722165e-39
1.3411703 1.9693373 0.7483418 4.5175859e-39
0.88170397 1.9899824 0.7504881 3.8722165e-39
1.3415825 1.9894801 0.74850273 4.5175859e-39
0.88210732 2.0096798 0.75064594 3.8722165e-39
1.3419949 2.0096226 0.74866366 4.5175859e-39
0.88253224 2.0304315 0.75051987 3.8722165e-39
1.342407 2.0297651 0.74882466 4.5175859e-39
0.88293344 2.0500381 0.75127715 3.8722165e-39
1.3428193 2.0499077 0.74898565 4.5175859e-39
0.88334811 2.0702877 0.75113153 3.8722165e-39
1.3432317 2.0700502 0.74914652 4.5175859e-39
0.88382441 2.0903852 0.75078195 4.0566077e-39
1.3436439 2.0901933 0.74930757 4.5175859e-39
0.89064962 2.1094191 0.7499277 5.1629553e-39
1.3440561 2.1103358 0.74946845 4.5175859e-39
0.90719163 2.1244764 0.74997693 5.0707596e-39
1.0527966 2.125622 0.7532773 4.8863684e-39
1.065012 2.1254508 0.74352539 4.8863684e-39
1.3444685 2.1304786 0.74962938 4.5175859e-39
1.3448806 2.1506212 0.74979043 4.5175859e-39
1.3452932 2.170764 0.74995136 4.5175859e-39
1.3456928 2.1902997 0.75039327 4.5175859e-39
1.3460916 2.2097876 0.75026327 4.5175859e-39
1.3465037 2.2299306 0.75042409 4.5175859e-39
1.3469163 2.250073 0.75058526 4.5175859e-39
1.3473284 2.2702157 0.75074607 4.5175859e-39
1.3477409 2.2903585 0.75090706 4.5175859e-39
1.348153 2.3105013 0.75106806 4.5175859e-39
1.3485526 2.3300145 0.75093824 4.5175859e-39
1.3489517 2.3495312 0.75137985 4.5175859e-39
1.3493643 2.3696742 0.7515409 4.5175859e-39
1.3497765 2.3898168 0.75170171 4.5175859e-39
1.3501886 2.4099598 0.75186288 4.5175859e-39
1.3506011 2.4301026 0.7520237 4.5175859e-39
1.3510129 2.4502454 0.75218475 4.5175859e-39
1.3514121 2.4697366 0.7526263 4.5175859e-39
1.3518121 2.4892693 0.7524966 4.5175859e-39
1.3522241 2.5094123 0.75265765 4.5175859e-39
1.3526365 2.5295553 0.75281858 4.5175859e-39
1.3530616 2.5502863 0.7494545 4.4253902e-39
1.3533827 2.5659778 0.74879557 4.3331946e-39
0.7746107 2.6322112 0.75108021 5.247221e-39
0.77497923 2.6502075 0.75082111 4.8780783e-39
0.77539057 2.6702976 0.7509824 4.8780783e-39
0.77579111 2.6898592 0.75113964 4.8784384e-39
0.41487989 0.0099954363 0.76537645 1.8439126e-39
0.43022996 0.0099959029 0.76992214 4.6097815e-40
0.44948217 0.009996484 0.76983666 4.6097815e-40
0.47023132 0.0099970819 0.77043992 1.8439126e-40
0.49106419 0.0099977441 0.76999003 9.219563e-40
0.51009083 0.0099983457 0.77087384 3.6878252e-40
0.52982342 0.0099989017 0.76957202 7.3756504e-40
0.55007303 0.0099995285 0.76971358 3.6878252e-40
0.5706495 0.010000139 0.76961547 7.3756504e-40
0.59117538 0.010000753 0.7701568 1.8439126e-40
0.61091858 0.010000855 0.77068317 1.8439126e-40
0.63066429 0.010000765 0.77057946 5.5317378e-40
0.65022874 0.010000609 0.76924741 7.3756504e-40
0.67000115 0.010000587 0.77050334 2.7658689e-40
0.6903578 0.010000454 0.76970375 6.4536941e-40
0.70976841 0.010000315 0.77043152 2.7658689e-40
0.72348964 0.010000199 0.77397466 0
0.47372383 0.89999974 0.76450664 8.1132154e-39
0.57189763 0.89999664 0.77244765 6.730281e-39
0.58495766 0.89999622 0.7620942 8.5741936e-39
0.67221278 0.89999592 0.77280992 6.4536941e-39
0.6848259 0.89999598 0.7628023 8.5741936e-39
0.45748073 0.90000021 0.77738309 6.730281e-39
0.46424869 0.90000004 0.7720179 6.730281e-39
0.89613169 1.7971312 0.77200133 1.3829344e-39
0.90932465 1.7917998 0.77135062 9.219563e-40
0.93103814 1.7900611 0.77413046 8.2976067e-40
0.95069396 1.7896866 0.77342409 7.3756504e-40
0.97006977 1.7892765 0.77300727 8.2976067e-40
0.98906791 1.7890364 0.7724123 7.3756504e-40
1.0092213 1.788638 0.771869 6.4536941e-40
1.0293868 1.7880671 0.77271026 7.3756504e-40
1.0498683 1.7875868 0.77417487 8.2976067e-40
1.0699513 1.7873199 0.77235663 7.3756504e-40
1.089703 1.7868302 0.7736811 8.2976067e-40
1.1096567 1.7864429 0.77284575 7.3756504e-40
1.1301491 1.7860812 0.77292144 7.3756504e-40
1.1501553 1.785623 0.77339971 7.3756504e-40
1.1703643 1.7851619 0.77341157 8.2976067e-40
1.1898173 1.7848227 0.77339816 8.2976067e-40
1.2084943 1.7891402 0.77775902 7.3756504e-40
1.221807 1.7993848 0.77857685 4.6097815e-40
0.4127138 1.8175491 0.76385188 7.5600416e-39
0.43248335 1.8168708 0.77019763 5.0707596e-39
0.44887576 1.8174542 0.76460963 8.4819979e-39
0.47146142 1.8162169 0.76924425 5.5317378e-39
0.48992497 1.8169594 0.76391304 9.1273674e-39
0.50902712 1.8157169 0.7687797 5.8083247e-39
0.5299359 1.8163964 0.76488858 9.4039542e-39
0.54865682 1.815363 0.76677173 6.730281e-39
0.57157576 1.8154992 0.76698363 8.2054111e-39
0.58949006 1.8158708 0.7643137 9.3117586e-39
0.61123651 1.8146944 0.76757759 7.3756504e-39
0.63068599 1.815282 0.7655552 9.1273674e-39
0.64898533 1.8141959 0.76578349 8.2054111e-39
0.67042065 1.8147345 0.76628608 8.6663892e-39
0.68913424 1.8141593 0.7640875 9.957128e-39
0.70919657 1.8140205 0.76620626 8.4819979e-39
0.72869474 1.8099818 0.77970004 0
0.87887192 1.8180708 0.77913493 6.6380854e-39
0.8852244 1.809302 0.77118695 1.9361082e-39
